320.000000 -2582.021199 68.904605
320.000000 -2581.587338 70.856979
320.000000 -2581.153477 72.809353
320.000000 -2580.719616 74.761727
320.000000 -2580.285755 76.714101
320.000000 -2579.851894 78.666475
320.000000 -2579.418033 80.618849
320.000000 -2578.984173 82.571224
320.000000 -2578.550312 84.523598
320.000000 -2578.116451 86.475972
320.000000 -2577.682590 88.428346
320.000000 -2577.248729 90.380720
320.000000 -2576.814868 92.333094
320.000000 -2576.000000 96.000000
319.405045 -2575.950420 97.908814
318.810090 -2575.900841 99.817628
318.215135 -2575.851261 101.726442
317.620180 -2575.801682 103.635256
317.025225 -2575.752102 105.544069
316.430270 -2575.702523 107.452883
315.835315 -2575.652943 109.361697
315.240360 -2575.603363 111.270511
314.645405 -2575.553784 113.179325
314.050450 -2575.504204 115.088139
313.455495 -2575.454625 116.996953
312.860540 -2575.405045 118.905767
312.265585 -2575.355465 120.814580
311.670630 -2575.305886 122.723394
311.075675 -2575.256306 124.632208
310.480720 -2575.206727 126.541022
309.885765 -2575.157147 128.449836
309.290810 -2575.107568 130.358650
308.695855 -2575.057988 132.267464
308.100900 -2575.008408 134.176278
307.505945 -2574.958829 136.085092
306.910991 -2574.909249 137.993905
306.316036 -2574.859670 139.902719
305.721081 -2574.810090 141.811533
305.126126 -2574.760510 143.720347
304.531171 -2574.710931 145.629161
303.936216 -2574.661351 147.537975
303.341261 -2574.611772 149.446789
302.746306 -2574.562192 151.355603
302.151351 -2574.512613 153.264416
301.556396 -2574.463033 155.173230
300.961441 -2574.413453 157.082044
300.366486 -2574.363874 158.990858
299.771531 -2574.314294 160.899672
299.176576 -2574.264715 162.808486
298.581621 -2574.215135 164.717300
297.986666 -2574.165555 166.626114
297.391711 -2574.115976 168.534928
296.796756 -2574.066396 170.443741
296.201801 -2574.016817 172.352555
295.606846 -2573.967237 174.261369
295.011891 -2573.917658 176.170183
294.416936 -2573.868078 178.078997
293.821981 -2573.818498 179.987811
293.227026 -2573.768919 181.896625
292.632071 -2573.719339 183.805439
292.037116 -2573.669760 185.714253
291.442161 -2573.620180 187.623066
290.847206 -2573.570601 189.531880
290.252251 -2573.521021 191.440694
289.657296 -2573.471441 193.349508
289.062341 -2573.421862 195.258322
288.467386 -2573.372282 197.167136
287.872431 -2573.322703 199.075950
287.277476 -2573.273123 200.984764
286.682521 -2573.223543 202.893577
286.087566 -2573.173964 204.802391
285.492611 -2573.124384 206.711205
284.897656 -2573.074805 208.620019
284.302701 -2573.025225 210.528833
283.707746 -2572.975646 212.437647
283.112791 -2572.926066 214.346461
282.517836 -2572.876486 216.255275
281.922881 -2572.826907 218.164089
281.327927 -2572.777327 220.072902
280.732972 -2572.727748 221.981716
280.138017 -2572.678168 223.890530
279.543062 -2572.628588 225.799344
278.948107 -2572.579009 227.708158
278.353152 -2572.529429 229.616972
277.758197 -2572.479850 231.525786
277.163242 -2572.430270 233.434600
276.568287 -2572.380691 235.343413
275.973332 -2572.331111 237.252227
275.378377 -2572.281531 239.161041
274.783422 -2572.231952 241.069855
274.188467 -2572.182372 242.978669
273.593512 -2572.132793 244.887483
272.998557 -2572.083213 246.796297
272.403602 -2572.033633 248.705111
271.808647 -2571.984054 250.613925
271.213692 -2571.934474 252.522738
270.618737 -2571.884895 254.431552
270.023782 -2571.835315 256.340366
269.428827 -2571.785736 258.249180
268.833872 -2571.736156 260.157994
268.238917 -2571.686576 262.066808
267.643962 -2571.636997 263.975622
267.049007 -2571.587417 265.884436
266.454052 -2571.537838 267.793249
265.859097 -2571.488258 269.702063
265.264142 -2571.438679 271.610877
264.669187 -2571.389099 273.519691
264.074232 -2571.339519 275.428505
263.479277 -2571.289940 277.337319
262.884322 -2571.240360 279.246133
262.289367 -2571.190781 281.154947
261.694412 -2571.141201 283.063761
261.099457 -2571.091621 284.972574
260.504502 -2571.042042 286.881388
259.909547 -2570.992462 288.790202
259.314592 -2570.942883 290.699016
258.719637 -2570.893303 292.607830
258.124682 -2570.843724 294.516644
257.529727 -2570.794144 296.425458
256.934772 -2570.744564 298.334272
256.339818 -2570.694985 300.243086
255.744863 -2570.645405 302.151899
255.149908 -2570.595826 304.060713
254.554953 -2570.546246 305.969527
253.959998 -2570.496666 307.878341
253.365043 -2570.447087 309.787155
252.770088 -2570.397507 311.695969
252.175133 -2570.347928 313.604783
251.580178 -2570.298348 315.513597
250.985223 -2570.248769 317.422410
250.390268 -2570.199189 319.331224
249.795313 -2570.149609 321.240038
249.200358 -2570.100030 323.148852
248.605403 -2570.050450 325.057666
248.010448 -2570.000871 326.966480
247.415493 -2569.951291 328.875294
246.820538 -2569.901711 330.784108
246.225583 -2569.852132 332.692922
245.630628 -2569.802552 334.601735
245.035673 -2569.752973 336.510549
244.440718 -2569.703393 338.419363
243.845763 -2569.653814 340.328177
243.250808 -2569.604234 342.236991
242.655853 -2569.554654 344.145805
242.060898 -2569.505075 346.054619
241.465943 -2569.455495 347.963433
240.870988 -2569.405916 349.872246
240.276033 -2569.356336 351.781060
239.681078 -2569.306757 353.689874
239.086123 -2569.257177 355.598688
238.491168 -2569.207597 357.507502
237.896213 -2569.158018 359.416316
237.301258 -2569.108438 361.325130
236.706303 -2569.058859 363.233944
236.111348 -2569.009279 365.142758
235.516393 -2568.959699 367.051571
234.921438 -2568.910120 368.960385
234.326483 -2568.860540 370.869199
233.731528 -2568.810961 372.778013
233.136573 -2568.761381 374.686827
232.541618 -2568.711802 376.595641
231.946663 -2568.662222 378.504455
231.351708 -2568.612642 380.413269
230.756754 -2568.563063 382.322082
230.161799 -2568.513483 384.230896
229.566844 -2568.463904 386.139710
228.971889 -2568.414324 388.048524
228.376934 -2568.364744 389.957338
227.781979 -2568.315165 391.866152
227.187024 -2568.265585 393.774966
226.592069 -2568.216006 395.683780
225.997114 -2568.166426 397.592594
225.402159 -2568.116847 399.501407
224.807204 -2568.067267 401.410221
224.000000 -2568.000000 404.000000
222.679534 -2568.000000 405.502122
221.359068 -2568.000000 407.004244
220.038602 -2568.000000 408.506365
218.718137 -2568.000000 410.008487
217.397671 -2568.000000 411.510609
216.077205 -2568.000000 413.012731
214.756739 -2568.000000 414.514853
213.436273 -2568.000000 416.016975
212.115807 -2568.000000 417.519096
210.795342 -2568.000000 419.021218
209.474876 -2568.000000 420.523340
208.154410 -2568.000000 422.025462
206.833944 -2568.000000 423.527584
205.513478 -2568.000000 425.029705
204.193012 -2568.000000 426.531827
202.872546 -2568.000000 428.033949
201.552081 -2568.000000 429.536071
200.231615 -2568.000000 431.038193
198.911149 -2568.000000 432.540315
197.590683 -2568.000000 434.042436
196.270217 -2568.000000 435.544558
194.949751 -2568.000000 437.046680
193.629286 -2568.000000 438.548802
192.308820 -2568.000000 440.050924
190.988354 -2568.000000 441.553045
189.667888 -2568.000000 443.055167
188.347422 -2568.000000 444.557289
187.026956 -2568.000000 446.059411
185.706490 -2568.000000 447.561533
184.386025 -2568.000000 449.063654
183.065559 -2568.000000 450.565776
181.745093 -2568.000000 452.067898
180.424627 -2568.000000 453.570020
179.104161 -2568.000000 455.072142
177.783695 -2568.000000 456.574264
176.463230 -2568.000000 458.076385
175.142764 -2568.000000 459.578507
173.822298 -2568.000000 461.080629
172.501832 -2568.000000 462.582751
171.181366 -2568.000000 464.084873
169.860900 -2568.000000 465.586994
168.540435 -2568.000000 467.089116
167.219969 -2568.000000 468.591238
165.899503 -2568.000000 470.093360
164.579037 -2568.000000 471.595482
163.258571 -2568.000000 473.097604
161.938105 -2568.000000 474.599725
160.617639 -2568.000000 476.101847
159.297174 -2568.000000 477.603969
157.976708 -2568.000000 479.106091
156.656242 -2568.000000 480.608213
155.335776 -2568.000000 482.110334
154.015310 -2568.000000 483.612456
152.694844 -2568.000000 485.114578
151.374379 -2568.000000 486.616700
150.053913 -2568.000000 488.118822
148.733447 -2568.000000 489.620944
147.412981 -2568.000000 491.123065
146.092515 -2568.000000 492.625187
144.772049 -2568.000000 494.127309
143.451583 -2568.000000 495.629431
142.131118 -2568.000000 497.131553
140.810652 -2568.000000 498.633674
139.490186 -2568.000000 500.135796
138.169720 -2568.000000 501.637918
136.849254 -2568.000000 503.140040
135.528788 -2568.000000 504.642162
134.208323 -2568.000000 506.144284
132.887857 -2568.000000 507.646405
131.567391 -2568.000000 509.148527
130.246925 -2568.000000 510.650649
128.926459 -2568.000000 512.152771
127.605993 -2568.000000 513.654893
126.285527 -2568.000000 515.157014
124.965062 -2568.000000 516.659136
123.644596 -2568.000000 518.161258
122.324130 -2568.000000 519.663380
121.003664 -2568.000000 521.165502
119.683198 -2568.000000 522.667624
118.362732 -2568.000000 524.169745
117.042267 -2568.000000 525.671867
115.721801 -2568.000000 527.173989
114.401335 -2568.000000 528.676111
113.080869 -2568.000000 530.178233
111.760403 -2568.000000 531.680354
110.439937 -2568.000000 533.182476
109.119471 -2568.000000 534.684598
107.799006 -2568.000000 536.186720
106.478540 -2568.000000 537.688842
105.158074 -2568.000000 539.190963
103.837608 -2568.000000 540.693085
102.517142 -2568.000000 542.195207
101.196676 -2568.000000 543.697329
99.876211 -2568.000000 545.199451
98.555745 -2568.000000 546.701573
97.235279 -2568.000000 548.203694
95.914813 -2568.000000 549.705816
94.594347 -2568.000000 551.207938
93.273881 -2568.000000 552.710060
91.953415 -2568.000000 554.212182
90.632950 -2568.000000 555.714303
89.312484 -2568.000000 557.216425
87.992018 -2568.000000 558.718547
86.671552 -2568.000000 560.220669
85.351086 -2568.000000 561.722791
84.030620 -2568.000000 563.224913
82.710155 -2568.000000 564.727034
81.389689 -2568.000000 566.229156
80.069223 -2568.000000 567.731278
78.748757 -2568.000000 569.233400
77.428291 -2568.000000 570.735522
76.107825 -2568.000000 572.237643
74.787360 -2568.000000 573.739765
73.466894 -2568.000000 575.241887
72.146428 -2568.000000 576.744009
70.825962 -2568.000000 578.246131
69.505496 -2568.000000 579.748253
68.185030 -2568.000000 581.250374
66.864564 -2568.000000 582.752496
65.544099 -2568.000000 584.254618
64.223633 -2568.000000 585.756740
62.903167 -2568.000000 587.258862
61.582701 -2568.000000 588.760983
60.262235 -2568.000000 590.263105
58.941769 -2568.000000 591.765227
57.621304 -2568.000000 593.267349
56.300838 -2568.000000 594.769471
54.980372 -2568.000000 596.271593
53.659906 -2568.000000 597.773714
52.339440 -2568.000000 599.275836
51.018974 -2568.000000 600.777958
49.698508 -2568.000000 602.280080
48.378043 -2568.000000 603.782202
47.057577 -2568.000000 605.284323
45.737111 -2568.000000 606.786445
44.416645 -2568.000000 608.288567
43.096179 -2568.000000 609.790689
41.775713 -2568.000000 611.292811
40.455248 -2568.000000 612.794933
39.134782 -2568.000000 614.297054
37.814316 -2568.000000 615.799176
36.493850 -2568.000000 617.301298
35.173384 -2568.000000 618.803420
33.852918 -2568.000000 620.305542
32.532452 -2568.000000 621.807663
31.211987 -2568.000000 623.309785
29.891521 -2568.000000 624.811907
28.571055 -2568.000000 626.314029
27.250589 -2568.000000 627.816151
25.930123 -2568.000000 629.318272
24.609657 -2568.000000 630.820394
23.289192 -2568.000000 632.322516
21.968726 -2568.000000 633.824638
20.648260 -2568.000000 635.326760
19.327794 -2568.000000 636.828882
18.007328 -2568.000000 638.331003
16.686862 -2568.000000 639.833125
15.366396 -2568.000000 641.335247
14.045931 -2568.000000 642.837369
12.725465 -2568.000000 644.339491
11.404999 -2568.000000 645.841612
10.084533 -2568.000000 647.343734
8.764067 -2568.000000 648.845856
7.443601 -2568.000000 650.347978
6.123136 -2568.000000 651.850100
4.802670 -2568.000000 653.352222
3.482204 -2568.000000 654.854343
2.161738 -2568.000000 656.356465
0.841272 -2568.000000 657.858587
-0.479194 -2568.000000 659.360709
-1.799660 -2568.000000 660.862831
-3.120125 -2568.000000 662.364952
-4.440591 -2568.000000 663.867074
-5.761057 -2568.000000 665.369196
-7.081523 -2568.000000 666.871318
-8.401989 -2568.000000 668.373440
-9.722455 -2568.000000 669.875562
-11.042920 -2568.000000 671.377683
-12.363386 -2568.000000 672.879805
-13.683852 -2568.000000 674.381927
-16.000000 -2568.000000 677.016706
-17.669961 -2569.100559 677.016706
-19.339922 -2570.201117 677.016706
-21.009884 -2571.301676 677.016706
-22.679845 -2572.402235 677.016706
-24.349806 -2573.502794 677.016706
-26.019767 -2574.603352 677.016706
-27.689729 -2575.703911 677.016706
-29.359690 -2576.804470 677.016706
-31.029651 -2577.905028 677.016706
-32.699612 -2579.005587 677.016706
-34.369574 -2580.106146 677.016706
-36.039535 -2581.206705 677.016706
-37.709496 -2582.307263 677.016706
-39.379457 -2583.407822 677.016706
-41.049418 -2584.508381 677.016706
-42.719380 -2585.608939 677.016706
-44.389341 -2586.709498 677.016706
-46.059302 -2587.810057 677.016706
-47.729263 -2588.910616 677.016706
-49.399225 -2590.011174 677.016706
-51.069186 -2591.111733 677.016706
-52.739147 -2592.212292 677.016706
-54.409108 -2593.312850 677.016706
-56.079070 -2594.413409 677.016706
-57.749031 -2595.513968 677.016706
-59.418992 -2596.614527 677.016706
-61.088953 -2597.715085 677.016706
-62.758914 -2598.815644 677.016706
-64.428876 -2599.916203 677.016706
-66.098837 -2601.016761 677.016706
-67.768798 -2602.117320 677.016706
-69.438759 -2603.217879 677.016706
-71.108721 -2604.318438 677.016706
-72.778682 -2605.418996 677.016706
-74.448643 -2606.519555 677.016706
-76.118604 -2607.620114 677.016706
-77.788566 -2608.720673 677.016706
-79.458527 -2609.821231 677.016706
-81.128488 -2610.921790 677.016706
-82.798449 -2612.022349 677.016706
-84.468410 -2613.122907 677.016706
-86.138372 -2614.223466 677.016706
-87.808333 -2615.324025 677.016706
-89.478294 -2616.424584 677.016706
-91.148255 -2617.525142 677.016706
-92.818217 -2618.625701 677.016706
-94.488178 -2619.726260 677.016706
-96.158139 -2620.826818 677.016706
-97.828100 -2621.927377 677.016706
-99.498062 -2623.027936 677.016706
-101.168023 -2624.128495 677.016706
-102.837984 -2625.229053 677.016706
-104.507945 -2626.329612 677.016706
-106.177906 -2627.430171 677.016706
-107.847868 -2628.530729 677.016706
-109.517829 -2629.631288 677.016706
-111.187790 -2630.731847 677.016706
-112.857751 -2631.832406 677.016706
-114.527713 -2632.932964 677.016706
-116.197674 -2634.033523 677.016706
-117.867635 -2635.134082 677.016706
-119.537596 -2636.234640 677.016706
-121.207558 -2637.335199 677.016706
-122.877519 -2638.435758 677.016706
-124.547480 -2639.536317 677.016706
-126.217441 -2640.636875 677.016706
-127.887402 -2641.737434 677.016706
-129.557364 -2642.837993 677.016706
-131.227325 -2643.938551 677.016706
-132.897286 -2645.039110 677.016706
-134.567247 -2646.139669 677.016706
-136.237209 -2647.240228 677.016706
-137.907170 -2648.340786 677.016706
-139.577131 -2649.441345 677.016706
-141.247092 -2650.541904 677.016706
-142.917054 -2651.642462 677.016706
-144.587015 -2652.743021 677.016706
-146.256976 -2653.843580 677.016706
-147.926937 -2654.944139 677.016706
-149.596898 -2656.044697 677.016706
-151.266860 -2657.145256 677.016706
-152.936821 -2658.245815 677.016706
-154.606782 -2659.346373 677.016706
-156.276743 -2660.446932 677.016706
-157.946705 -2661.547491 677.016706
-159.616666 -2662.648050 677.016706
-161.286627 -2663.748608 677.016706
-162.956588 -2664.849167 677.016706
-164.626550 -2665.949726 677.016706
-166.296511 -2667.050284 677.016706
-167.966472 -2668.150843 677.016706
-169.636433 -2669.251402 677.016706
-171.306394 -2670.351961 677.016706
-172.976356 -2671.452519 677.016706
-174.646317 -2672.553078 677.016706
-176.316278 -2673.653637 677.016706
-177.986239 -2674.754195 677.016706
-179.656201 -2675.854754 677.016706
-181.326162 -2676.955313 677.016706
-182.996123 -2678.055872 677.016706
-184.666084 -2679.156430 677.016706
-186.336046 -2680.256989 677.016706
-188.006007 -2681.357548 677.016706
-189.675968 -2682.458106 677.016706
-191.345929 -2683.558665 677.016706
-193.015890 -2684.659224 677.016706
-194.685852 -2685.759783 677.016706
-196.355813 -2686.860341 677.016706
-198.025774 -2687.960900 677.016706
-199.695735 -2689.061459 677.016706
-201.365697 -2690.162018 677.016706
-203.035658 -2691.262576 677.016706
-204.705619 -2692.363135 677.016706
-206.375580 -2693.463694 677.016706
-208.045542 -2694.564252 677.016706
-209.715503 -2695.664811 677.016706
-211.385464 -2696.765370 677.016706
-213.055425 -2697.865929 677.016706
-214.725386 -2698.966487 677.016706
-216.395348 -2700.067046 677.016706
-218.065309 -2701.167605 677.016706
-219.735270 -2702.268163 677.016706
-221.405231 -2703.368722 677.016706
-224.000000 -2705.078759 677.016706
-225.836765 -2705.528356 676.365435
-227.673531 -2705.977954 675.714163
-229.510296 -2706.427551 675.062891
-231.347062 -2706.877149 674.411619
-233.183827 -2707.326746 673.760348
-235.020593 -2707.776343 673.109076
-236.857358 -2708.225941 672.457804
-238.694123 -2708.675538 671.806532
-240.530889 -2709.125136 671.155260
-242.367654 -2709.574733 670.503989
-244.204420 -2710.024330 669.852717
-246.041185 -2710.473928 669.201445
-247.877951 -2710.923525 668.550173
-249.714716 -2711.373123 667.898902
-251.551481 -2711.822720 667.247630
-253.388247 -2712.272317 666.596358
-255.225012 -2712.721915 665.945086
-257.061778 -2713.171512 665.293814
-258.898543 -2713.621110 664.642543
-260.735309 -2714.070707 663.991271
-262.572074 -2714.520304 663.339999
-264.408839 -2714.969902 662.688727
-266.245605 -2715.419499 662.037455
-268.082370 -2715.869097 661.386184
-269.919136 -2716.318694 660.734912
-271.755901 -2716.768291 660.083640
-273.592667 -2717.217889 659.432368
-275.429432 -2717.667486 658.781097
-277.266197 -2718.117084 658.129825
-279.102963 -2718.566681 657.478553
-280.939728 -2719.016279 656.827281
-282.776494 -2719.465876 656.176009
-284.613259 -2719.915473 655.524738
-286.450025 -2720.365071 654.873466
-288.286790 -2720.814668 654.222194
-290.123555 -2721.264266 653.570922
-291.960321 -2721.713863 652.919651
-293.797086 -2722.163460 652.268379
-295.633852 -2722.613058 651.617107
-297.470617 -2723.062655 650.965835
-299.307383 -2723.512253 650.314563
-301.144148 -2723.961850 649.663292
-302.980913 -2724.411447 649.012020
-304.817679 -2724.861045 648.360748
-306.654444 -2725.310642 647.709476
-308.491210 -2725.760240 647.058204
-310.327975 -2726.209837 646.406933
-312.164741 -2726.659434 645.755661
-314.001506 -2727.109032 645.104389
-315.838271 -2727.558629 644.453117
-317.675037 -2728.008227 643.801846
-319.511802 -2728.457824 643.150574
-321.348568 -2728.907421 642.499302
-323.185333 -2729.357019 641.848030
-325.022099 -2729.806616 641.196758
-326.858864 -2730.256214 640.545487
-328.695629 -2730.705811 639.894215
-330.532395 -2731.155408 639.242943
-332.369160 -2731.605006 638.591671
-334.205926 -2732.054603 637.940400
-336.042691 -2732.504201 637.289128
-337.879457 -2732.953798 636.637856
-339.716222 -2733.403395 635.986584
-341.552987 -2733.852993 635.335312
-343.389753 -2734.302590 634.684041
-345.226518 -2734.752188 634.032769
-347.063284 -2735.201785 633.381497
-348.900049 -2735.651383 632.730225
-350.736815 -2736.100980 632.078954
-352.573580 -2736.550577 631.427682
-354.410345 -2737.000175 630.776410
-356.247111 -2737.449772 630.125138
-358.083876 -2737.899370 629.473866
-359.920642 -2738.348967 628.822595
-361.757407 -2738.798564 628.171323
-363.594173 -2739.248162 627.520051
-365.430938 -2739.697759 626.868779
-367.267703 -2740.147357 626.217507
-369.104469 -2740.596954 625.566236
-370.941234 -2741.046551 624.914964
-372.778000 -2741.496149 624.263692
-374.614765 -2741.945746 623.612420
-376.451531 -2742.395344 622.961149
-378.288296 -2742.844941 622.309877
-380.125061 -2743.294538 621.658605
-381.961827 -2743.744136 621.007333
-383.798592 -2744.193733 620.356061
-385.635358 -2744.643331 619.704790
-387.472123 -2745.092928 619.053518
-389.308889 -2745.542525 618.402246
-391.145654 -2745.992123 617.750974
-392.982419 -2746.441720 617.099703
-394.819185 -2746.891318 616.448431
-396.655950 -2747.340915 615.797159
-398.492716 -2747.790512 615.145887
-400.329481 -2748.240110 614.494615
-402.166247 -2748.689707 613.843344
-404.003012 -2749.139305 613.192072
-405.839777 -2749.588902 612.540800
-407.676543 -2750.038500 611.889528
-409.513308 -2750.488097 611.238257
-411.350074 -2750.937694 610.586985
-413.186839 -2751.387292 609.935713
-415.023605 -2751.836889 609.284441
-416.860370 -2752.286487 608.633169
-418.697135 -2752.736084 607.981898
-420.533901 -2753.185681 607.330626
-422.370666 -2753.635279 606.679354
-424.207432 -2754.084876 606.028082
-426.044197 -2754.534474 605.376810
-427.880963 -2754.984071 604.725539
-429.717728 -2755.433668 604.074267
-431.554493 -2755.883266 603.422995
-433.391259 -2756.332863 602.771723
-435.228024 -2756.782461 602.120452
-437.064790 -2757.232058 601.469180
-438.901555 -2757.681655 600.817908
-440.738321 -2758.131253 600.166636
-442.575086 -2758.580850 599.515364
-444.411851 -2759.030448 598.864093
-446.248617 -2759.480045 598.212821
-448.085382 -2759.929642 597.561549
-449.922148 -2760.379240 596.910277
-451.758913 -2760.828837 596.259006
-453.595679 -2761.278435 595.607734
-455.432444 -2761.728032 594.956462
-457.269209 -2762.177629 594.305190
-459.105975 -2762.627227 593.653918
-460.942740 -2763.076824 593.002647
-462.779506 -2763.526422 592.351375
-464.616271 -2763.976019 591.700103
-466.453037 -2764.425616 591.048831
-468.289802 -2764.875214 590.397560
-470.126567 -2765.324811 589.746288
-471.963333 -2765.774409 589.095016
-473.800098 -2766.224006 588.443744
-475.636864 -2766.673604 587.792472
-477.473629 -2767.123201 587.141201
-479.310395 -2767.572798 586.489929
-481.147160 -2768.022396 585.838657
-482.983925 -2768.471993 585.187385
-484.820691 -2768.921591 584.536113
-486.657456 -2769.371188 583.884842
-488.494222 -2769.820785 583.233570
-490.330987 -2770.270383 582.582298
-492.167753 -2770.719980 581.931026
-494.004518 -2771.169578 581.279755
-495.841283 -2771.619175 580.628483
-497.678049 -2772.068772 579.977211
-499.514814 -2772.518370 579.325939
-501.351580 -2772.967967 578.674667
-503.188345 -2773.417565 578.023396
-505.025111 -2773.867162 577.372124
-506.861876 -2774.316759 576.720852
-508.698641 -2774.766357 576.069580
-510.535407 -2775.215954 575.418309
-512.372172 -2775.665552 574.767037
-514.208938 -2776.115149 574.115765
-516.045703 -2776.564746 573.464493
-517.882469 -2777.014344 572.813221
-519.719234 -2777.463941 572.161950
-521.555999 -2777.913539 571.510678
-523.392765 -2778.363136 570.859406
-525.229530 -2778.812733 570.208134
-527.066296 -2779.262331 569.556862
-528.903061 -2779.711928 568.905591
-530.739827 -2780.161526 568.254319
-532.576592 -2780.611123 567.603047
-534.413357 -2781.060720 566.951775
-536.250123 -2781.510318 566.300504
-538.086888 -2781.959915 565.649232
-539.923654 -2782.409513 564.997960
-541.760419 -2782.859110 564.346688
-543.597185 -2783.308708 563.695416
-545.433950 -2783.758305 563.044145
-547.270715 -2784.207902 562.392873
-549.107481 -2784.657500 561.741601
-550.944246 -2785.107097 561.090329
-552.781012 -2785.556695 560.439058
-554.617777 -2786.006292 559.787786
-556.454543 -2786.455889 559.136514
-558.291308 -2786.905487 558.485242
-560.128073 -2787.355084 557.833970
-561.964839 -2787.804682 557.182699
-563.801604 -2788.254279 556.531427
-565.638370 -2788.703876 555.880155
-567.475135 -2789.153474 555.228883
-569.311901 -2789.603071 554.577612
-571.148666 -2790.052669 553.926340
-572.985431 -2790.502266 553.275068
-574.822197 -2790.951863 552.623796
-576.658962 -2791.401461 551.972524
-578.495728 -2791.851058 551.321253
-580.332493 -2792.300656 550.669981
-582.169259 -2792.750253 550.018709
-584.006024 -2793.199850 549.367437
-585.842789 -2793.649448 548.716165
-587.679555 -2794.099045 548.064894
-589.516320 -2794.548643 547.413622
-591.353086 -2794.998240 546.762350
-593.189851 -2795.447837 546.111078
-595.026617 -2795.897435 545.459807
-596.863382 -2796.347032 544.808535
-598.700147 -2796.796630 544.157263
-600.536913 -2797.246227 543.505991
-602.373678 -2797.695824 542.854719
-604.210444 -2798.145422 542.203448
-606.047209 -2798.595019 541.552176
-607.883975 -2799.044617 540.900904
-609.720740 -2799.494214 540.249632
-611.557505 -2799.943812 539.598361
-613.394271 -2800.393409 538.947089
-615.231036 -2800.843006 538.295817
-617.067802 -2801.292604 537.644545
-618.904567 -2801.742201 536.993273
-620.741333 -2802.191799 536.342002
-622.578098 -2802.641396 535.690730
-624.414863 -2803.090993 535.039458
-626.251629 -2803.540591 534.388186
-628.088394 -2803.990188 533.736915
-629.925160 -2804.439786 533.085643
-631.761925 -2804.889383 532.434371
-633.598691 -2805.338980 531.783099
-635.435456 -2805.788578 531.131827
-637.272221 -2806.238175 530.480556
-639.108987 -2806.687773 529.829284
-640.945752 -2807.137370 529.178012
-642.782518 -2807.586967 528.526740
-644.619283 -2808.036565 527.875468
-646.456049 -2808.486162 527.224197
-648.292814 -2808.935760 526.572925
-650.129579 -2809.385357 525.921653
-651.966345 -2809.834954 525.270381
-653.803110 -2810.284552 524.619110
-655.639876 -2810.734149 523.967838
-657.476641 -2811.183747 523.316566
-659.313407 -2811.633344 522.665294
-661.150172 -2812.082941 522.014022
-662.986937 -2812.532539 521.362751
-664.823703 -2812.982136 520.711479
-666.660468 -2813.431734 520.060207
-668.497234 -2813.881331 519.408935
-670.333999 -2814.330928 518.757664
-672.170765 -2814.780526 518.106392
-674.007530 -2815.230123 517.455120
-675.844295 -2815.679721 516.803848
-677.681061 -2816.129318 516.152576
-679.517826 -2816.578916 515.501305
-681.354592 -2817.028513 514.850033
-683.191357 -2817.478110 514.198761
-685.028123 -2817.927708 513.547489
-686.864888 -2818.377305 512.896218
-688.701653 -2818.826903 512.244946
-690.538419 -2819.276500 511.593674
-692.375184 -2819.726097 510.942402
-694.211950 -2820.175695 510.291130
-696.048715 -2820.625292 509.639859
-697.885481 -2821.074890 508.988587
-699.722246 -2821.524487 508.337315
-701.559011 -2821.974084 507.686043
-703.395777 -2822.423682 507.034771
-705.232542 -2822.873279 506.383500
-707.069308 -2823.322877 505.732228
-708.906073 -2823.772474 505.080956
-710.742839 -2824.222071 504.429684
-712.579604 -2824.671669 503.778413
-714.416369 -2825.121266 503.127141
-716.253135 -2825.570864 502.475869
-718.089900 -2826.020461 501.824597
-719.926666 -2826.470058 501.173325
-721.763431 -2826.919656 500.522054
-723.600197 -2827.369253 499.870782
-725.436962 -2827.818851 499.219510
-727.273727 -2828.268448 498.568238
-729.110493 -2828.718045 497.916967
-730.947258 -2829.167643 497.265695
-732.784024 -2829.617240 496.614423
-734.620789 -2830.066838 495.963151
-736.457555 -2830.516435 495.311879
-738.294320 -2830.966033 494.660608
-740.131085 -2831.415630 494.009336
-741.967851 -2831.865227 493.358064
-743.804616 -2832.314825 492.706792
-745.641382 -2832.764422 492.055520
-747.478147 -2833.214020 491.404249
-749.314913 -2833.663617 490.752977
-751.151678 -2834.113214 490.101705
-752.988443 -2834.562812 489.450433
-754.825209 -2835.012409 488.799162
-756.661974 -2835.462007 488.147890
-758.498740 -2835.911604 487.496618
-760.335505 -2836.361201 486.845346
-762.172271 -2836.810799 486.194074
-764.009036 -2837.260396 485.542803
-765.845801 -2837.709994 484.891531
-767.682567 -2838.159591 484.240259
-769.519332 -2838.609188 483.588987
-771.356098 -2839.058786 482.937716
-773.192863 -2839.508383 482.286444
-775.029629 -2839.957981 481.635172
-776.866394 -2840.407578 480.983900
-778.703159 -2840.857175 480.332628
-780.539925 -2841.306773 479.681357
-782.376690 -2841.756370 479.030085
-784.213456 -2842.205968 478.378813
-786.050221 -2842.655565 477.727541
-787.886987 -2843.105162 477.076270
-789.723752 -2843.554760 476.424998
-791.560517 -2844.004357 475.773726
-793.397283 -2844.453955 475.122454
-795.234048 -2844.903552 474.471182
-797.070814 -2845.353149 473.819911
-798.907579 -2845.802747 473.168639
-800.744345 -2846.252344 472.517367
-802.581110 -2846.701942 471.866095
-804.417875 -2847.151539 471.214823
-806.254641 -2847.601137 470.563552
-808.091406 -2848.050734 469.912280
-809.928172 -2848.500331 469.261008
-811.764937 -2848.949929 468.609736
-813.601703 -2849.399526 467.958465
-815.438468 -2849.849124 467.307193
-817.275233 -2850.298721 466.655921
-819.111999 -2850.748318 466.004649
-820.948764 -2851.197916 465.353377
-822.785530 -2851.647513 464.702106
-824.622295 -2852.097111 464.050834
-826.459061 -2852.546708 463.399562
-828.295826 -2852.996305 462.748290
-830.132591 -2853.445903 462.097019
-831.969357 -2853.895500 461.445747
-833.806122 -2854.345098 460.794475
-835.642888 -2854.794695 460.143203
-837.479653 -2855.244292 459.491931
-839.316419 -2855.693890 458.840660
-841.153184 -2856.143487 458.189388
-842.989949 -2856.593085 457.538116
-844.826715 -2857.042682 456.886844
-846.663480 -2857.492279 456.235573
-848.500246 -2857.941877 455.584301
-850.337011 -2858.391474 454.933029
-852.173777 -2858.841072 454.281757
-854.010542 -2859.290669 453.630485
-855.847307 -2859.740266 452.979214
-857.684073 -2860.189864 452.327942
-859.520838 -2860.639461 451.676670
-861.357604 -2861.089059 451.025398
-863.194369 -2861.538656 450.374126
-865.031135 -2861.988253 449.722855
-866.867900 -2862.437851 449.071583
-868.704665 -2862.887448 448.420311
-870.541431 -2863.337046 447.769039
-872.378196 -2863.786643 447.117768
-874.214962 -2864.236241 446.466496
-876.051727 -2864.685838 445.815224
-877.888493 -2865.135435 445.163952
-879.725258 -2865.585033 444.512680
-881.562023 -2866.034630 443.861409
-883.398789 -2866.484228 443.210137
-885.235554 -2866.933825 442.558865
-887.072320 -2867.383422 441.907593
-888.909085 -2867.833020 441.256322
-890.745851 -2868.282617 440.605050
-892.582616 -2868.732215 439.953778
-894.419381 -2869.181812 439.302506
-896.256147 -2869.631409 438.651234
-898.092912 -2870.081007 437.999963
-899.929678 -2870.530604 437.348691
-901.766443 -2870.980202 436.697419
-903.603209 -2871.429799 436.046147
-905.439974 -2871.879396 435.394876
-907.276739 -2872.328994 434.743604
-909.113505 -2872.778591 434.092332
-910.950270 -2873.228189 433.441060
-912.787036 -2873.677786 432.789788
-914.623801 -2874.127383 432.138517
-916.460567 -2874.576981 431.487245
-918.297332 -2875.026578 430.835973
-920.134097 -2875.476176 430.184701
-921.970863 -2875.925773 429.533429
-923.807628 -2876.375370 428.882158
-925.644394 -2876.824968 428.230886
-927.481159 -2877.274565 427.579614
-929.317925 -2877.724163 426.928342
-931.154690 -2878.173760 426.277071
-932.991455 -2878.623357 425.625799
-934.828221 -2879.072955 424.974527
-936.664986 -2879.522552 424.323255
-938.501752 -2879.972150 423.671983
-940.338517 -2880.421747 423.020712
-942.175283 -2880.871345 422.369440
-944.012048 -2881.320942 421.718168
-945.848813 -2881.770539 421.066896
-947.685579 -2882.220137 420.415625
-949.522344 -2882.669734 419.764353
-951.359110 -2883.119332 419.113081
-953.195875 -2883.568929 418.461809
-955.032641 -2884.018526 417.810537
-956.869406 -2884.468124 417.159266
-958.706171 -2884.917721 416.507994
-960.542937 -2885.367319 415.856722
-962.379702 -2885.816916 415.205450
-964.216468 -2886.266513 414.554178
-966.053233 -2886.716111 413.902907
-967.889999 -2887.165708 413.251635
-969.726764 -2887.615306 412.600363
-971.563529 -2888.064903 411.949091
-973.400295 -2888.514500 411.297820
-975.237060 -2888.964098 410.646548
-977.073826 -2889.413695 409.995276
-978.910591 -2889.863293 409.344004
-980.747357 -2890.312890 408.692732
-982.584122 -2890.762487 408.041461
-984.420887 -2891.212085 407.390189
-986.257653 -2891.661682 406.738917
-988.094418 -2892.111280 406.087645
-989.931184 -2892.560877 405.436374
-991.767949 -2893.010474 404.785102
-993.604715 -2893.460072 404.133830
-995.441480 -2893.909669 403.482558
-997.278245 -2894.359267 402.831286
-999.115011 -2894.808864 402.180015
-1000.951776 -2895.258461 401.528743
-1002.788542 -2895.708059 400.877471
-1004.625307 -2896.157656 400.226199
-1006.462073 -2896.607254 399.574928
-1008.298838 -2897.056851 398.923656
-1010.135603 -2897.506449 398.272384
-1011.972369 -2897.956046 397.621112
-1013.809134 -2898.405643 396.969840
-1015.645900 -2898.855241 396.318569
-1017.482665 -2899.304838 395.667297
-1019.319431 -2899.754436 395.016025
-1021.156196 -2900.204033 394.364753
-1022.992961 -2900.653630 393.713481
-1024.829727 -2901.103228 393.062210
-1026.666492 -2901.552825 392.410938
-1028.503258 -2902.002423 391.759666
-1030.340023 -2902.452020 391.108394
-1032.176789 -2902.901617 390.457123
-1034.013554 -2903.351215 389.805851
-1035.850319 -2903.800812 389.154579
-1037.687085 -2904.250410 388.503307
-1039.523850 -2904.700007 387.852035
-1041.360616 -2905.149604 387.200764
-1043.197381 -2905.599202 386.549492
-1045.034147 -2906.048799 385.898220
-1046.870912 -2906.498397 385.246948
-1048.707677 -2906.947994 384.595677
-1050.544443 -2907.397591 383.944405
-1052.381208 -2907.847189 383.293133
-1054.217974 -2908.296786 382.641861
-1056.054739 -2908.746384 381.990589
-1057.891505 -2909.195981 381.339318
-1059.728270 -2909.645578 380.688046
-1061.565035 -2910.095176 380.036774
-1063.401801 -2910.544773 379.385502
-1065.238566 -2910.994371 378.734231
-1067.075332 -2911.443968 378.082959
-1068.912097 -2911.893566 377.431687
-1070.748863 -2912.343163 376.780415
-1072.585628 -2912.792760 376.129143
-1074.422393 -2913.242358 375.477872
-1076.259159 -2913.691955 374.826600
-1078.095924 -2914.141553 374.175328
-1079.932690 -2914.591150 373.524056
-1081.769455 -2915.040747 372.872784
-1083.606221 -2915.490345 372.221513
-1085.442986 -2915.939942 371.570241
-1087.279751 -2916.389540 370.918969
-1089.116517 -2916.839137 370.267697
-1090.953282 -2917.288734 369.616426
-1092.790048 -2917.738332 368.965154
-1094.626813 -2918.187929 368.313882
-1096.463579 -2918.637527 367.662610
-1098.300344 -2919.087124 367.011338
-1100.137109 -2919.536721 366.360067
-1101.973875 -2919.986319 365.708795
-1103.810640 -2920.435916 365.057523
-1105.647406 -2920.885514 364.406251
-1107.484171 -2921.335111 363.754980
-1109.320937 -2921.784708 363.103708
-1111.157702 -2922.234306 362.452436
-1112.994467 -2922.683903 361.801164
-1114.831233 -2923.133501 361.149892
-1116.667998 -2923.583098 360.498621
-1118.504764 -2924.032695 359.847349
-1120.341529 -2924.482293 359.196077
-1122.178295 -2924.931890 358.544805
-1124.015060 -2925.381488 357.893534
-1125.851825 -2925.831085 357.242262
-1127.688591 -2926.280682 356.590990
-1129.525356 -2926.730280 355.939718
-1131.362122 -2927.179877 355.288446
-1133.198887 -2927.629475 354.637175
-1135.035653 -2928.079072 353.985903
-1136.872418 -2928.528670 353.334631
-1138.709183 -2928.978267 352.683359
-1140.545949 -2929.427864 352.032087
-1142.382714 -2929.877462 351.380816
-1144.219480 -2930.327059 350.729544
-1146.056245 -2930.776657 350.078272
-1147.893011 -2931.226254 349.427000
-1149.729776 -2931.675851 348.775729
-1151.566541 -2932.125449 348.124457
-1153.403307 -2932.575046 347.473185
-1155.240072 -2933.024644 346.821913
-1157.076838 -2933.474241 346.170641
-1158.913603 -2933.923838 345.519370
-1160.750369 -2934.373436 344.868098
-1162.587134 -2934.823033 344.216826
-1164.423899 -2935.272631 343.565554
-1166.260665 -2935.722228 342.914283
-1168.097430 -2936.171825 342.263011
-1169.934196 -2936.621423 341.611739
-1171.770961 -2937.071020 340.960467
-1173.607727 -2937.520618 340.309195
-1175.444492 -2937.970215 339.657924
-1177.281257 -2938.419812 339.006652
-1179.118023 -2938.869410 338.355380
-1180.954788 -2939.319007 337.704108
-1182.791554 -2939.768605 337.052837
-1184.628319 -2940.218202 336.401565
-1186.465085 -2940.667799 335.750293
-1188.301850 -2941.117397 335.099021
-1190.138615 -2941.566994 334.447749
-1191.975381 -2942.016592 333.796478
-1193.812146 -2942.466189 333.145206
-1195.648912 -2942.915786 332.493934
-1197.485677 -2943.365384 331.842662
-1199.322443 -2943.814981 331.191390
-1201.159208 -2944.264579 330.540119
-1202.995973 -2944.714176 329.888847
-1204.832739 -2945.163774 329.237575
-1206.669504 -2945.613371 328.586303
-1208.506270 -2946.062968 327.935032
-1210.343035 -2946.512566 327.283760
-1212.179801 -2946.962163 326.632488
-1214.016566 -2947.411761 325.981216
-1215.853331 -2947.861358 325.329944
-1217.690097 -2948.310955 324.678673
-1219.526862 -2948.760553 324.027401
-1221.363628 -2949.210150 323.376129
-1223.200393 -2949.659748 322.724857
-1225.037159 -2950.109345 322.073586
-1226.873924 -2950.558942 321.422314
-1228.710689 -2951.008540 320.771042
-1230.547455 -2951.458137 320.119770
-1232.384220 -2951.907735 319.468498
-1234.220986 -2952.357332 318.817227
-1236.057751 -2952.806929 318.165955
-1237.894517 -2953.256527 317.514683
-1239.731282 -2953.706124 316.863411
-1241.568047 -2954.155722 316.212139
-1243.404813 -2954.605319 315.560868
-1245.241578 -2955.054916 314.909596
-1247.078344 -2955.504514 314.258324
-1248.915109 -2955.954111 313.607052
-1250.751875 -2956.403709 312.955781
-1252.588640 -2956.853306 312.304509
-1254.425405 -2957.302903 311.653237
-1256.262171 -2957.752501 311.001965
-1258.098936 -2958.202098 310.350693
-1259.935702 -2958.651696 309.699422
-1261.772467 -2959.101293 309.048150
-1263.609233 -2959.550890 308.396878
-1265.445998 -2960.000488 307.745606
-1267.282763 -2960.450085 307.094335
-1269.119529 -2960.899683 306.443063
-1270.956294 -2961.349280 305.791791
-1272.793060 -2961.798878 305.140519
-1274.629825 -2962.248475 304.489247
-1276.466591 -2962.698072 303.837976
-1278.303356 -2963.147670 303.186704
-1280.140121 -2963.597267 302.535432
-1281.976887 -2964.046865 301.884160
-1283.813652 -2964.496462 301.232889
-1285.650418 -2964.946059 300.581617
-1287.487183 -2965.395657 299.930345
-1289.323949 -2965.845254 299.279073
-1291.160714 -2966.294852 298.627801
-1292.997479 -2966.744449 297.976530
-1294.834245 -2967.194046 297.325258
-1296.671010 -2967.643644 296.673986
-1298.507776 -2968.093241 296.022714
-1300.344541 -2968.542839 295.371442
-1302.181307 -2968.992436 294.720171
-1304.018072 -2969.442033 294.068899
-1305.854837 -2969.891631 293.417627
-1307.691603 -2970.341228 292.766355
-1309.528368 -2970.790826 292.115084
-1311.365134 -2971.240423 291.463812
-1313.201899 -2971.690020 290.812540
-1315.038665 -2972.139618 290.161268
-1316.875430 -2972.589215 289.509996
-1318.712195 -2973.038813 288.858725
-1320.548961 -2973.488410 288.207453
-1322.385726 -2973.938007 287.556181
-1324.222492 -2974.387605 286.904909
-1326.059257 -2974.837202 286.253638
-1327.896023 -2975.286800 285.602366
-1329.732788 -2975.736397 284.951094
-1331.569553 -2976.185994 284.299822
-1333.406319 -2976.635592 283.648550
-1335.243084 -2977.085189 282.997279
-1337.079850 -2977.534787 282.346007
-1338.916615 -2977.984384 281.694735
-1340.753381 -2978.433982 281.043463
-1342.590146 -2978.883579 280.392192
-1344.426911 -2979.333176 279.740920
-1346.263677 -2979.782774 279.089648
-1348.100442 -2980.232371 278.438376
-1349.937208 -2980.681969 277.787104
-1351.773973 -2981.131566 277.135833
-1353.610739 -2981.581163 276.484561
-1355.447504 -2982.030761 275.833289
-1357.284269 -2982.480358 275.182017
-1359.121035 -2982.929956 274.530745
-1360.957800 -2983.379553 273.879474
-1362.794566 -2983.829150 273.228202
-1364.631331 -2984.278748 272.576930
-1366.468097 -2984.728345 271.925658
-1368.304862 -2985.177943 271.274387
-1370.141627 -2985.627540 270.623115
-1371.978393 -2986.077137 269.971843
-1373.815158 -2986.526735 269.320571
-1375.651924 -2986.976332 268.669299
-1377.488689 -2987.425930 268.018028
-1379.325455 -2987.875527 267.366756
-1381.162220 -2988.325124 266.715484
-1382.998985 -2988.774722 266.064212
-1384.835751 -2989.224319 265.412941
-1386.672516 -2989.673917 264.761669
-1388.509282 -2990.123514 264.110397
-1390.346047 -2990.573111 263.459125
-1392.182813 -2991.022709 262.807853
-1394.019578 -2991.472306 262.156582
-1395.856343 -2991.921904 261.505310
-1397.693109 -2992.371501 260.854038
-1399.529874 -2992.821099 260.202766
-1401.366640 -2993.270696 259.551495
-1403.203405 -2993.720293 258.900223
-1405.040171 -2994.169891 258.248951
-1406.876936 -2994.619488 257.597679
-1408.713701 -2995.069086 256.946407
-1410.550467 -2995.518683 256.295136
-1412.387232 -2995.968280 255.643864
-1414.223998 -2996.417878 254.992592
-1416.060763 -2996.867475 254.341320
-1417.897529 -2997.317073 253.690048
-1419.734294 -2997.766670 253.038777
-1421.571059 -2998.216267 252.387505
-1423.407825 -2998.665865 251.736233
-1425.244590 -2999.115462 251.084961
-1427.081356 -2999.565060 250.433690
-1428.918121 -3000.014657 249.782418
-1430.754887 -3000.464254 249.131146
-1432.591652 -3000.913852 248.479874
-1434.428417 -3001.363449 247.828602
-1436.265183 -3001.813047 247.177331
-1438.101948 -3002.262644 246.526059
-1439.938714 -3002.712241 245.874787
-1441.775479 -3003.161839 245.223515
-1443.612245 -3003.611436 244.572244
-1445.449010 -3004.061034 243.920972
-1447.285775 -3004.510631 243.269700
-1449.122541 -3004.960228 242.618428
-1450.959306 -3005.409826 241.967156
-1452.796072 -3005.859423 241.315885
-1454.632837 -3006.309021 240.664613
-1456.469603 -3006.758618 240.013341
-1458.306368 -3007.208215 239.362069
-1460.143133 -3007.657813 238.710797
-1461.979899 -3008.107410 238.059526
-1463.816664 -3008.557008 237.408254
-1465.653430 -3009.006605 236.756982
-1467.490195 -3009.456203 236.105710
-1469.326961 -3009.905800 235.454439
-1471.163726 -3010.355397 234.803167
-1473.000491 -3010.804995 234.151895
-1474.837257 -3011.254592 233.500623
-1476.674022 -3011.704190 232.849351
-1478.510788 -3012.153787 232.198080
-1480.347553 -3012.603384 231.546808
-1482.184319 -3013.052982 230.895536
-1484.021084 -3013.502579 230.244264
-1485.857849 -3013.952177 229.592993
-1487.694615 -3014.401774 228.941721
-1489.531380 -3014.851371 228.290449
-1491.368146 -3015.300969 227.639177
-1493.204911 -3015.750566 226.987905
-1495.041677 -3016.200164 226.336634
-1496.878442 -3016.649761 225.685362
-1498.715207 -3017.099358 225.034090
-1500.551973 -3017.548956 224.382818
-1502.388738 -3017.998553 223.731547
-1504.225504 -3018.448151 223.080275
-1506.062269 -3018.897748 222.429003
-1507.899035 -3019.347345 221.777731
-1509.735800 -3019.796943 221.126459
-1511.572565 -3020.246540 220.475188
-1513.409331 -3020.696138 219.823916
-1515.246096 -3021.145735 219.172644
-1517.082862 -3021.595332 218.521372
-1518.919627 -3022.044930 217.870100
-1520.756393 -3022.494527 217.218829
-1522.593158 -3022.944125 216.567557
-1524.429923 -3023.393722 215.916285
-1526.266689 -3023.843319 215.265013
-1528.103454 -3024.292917 214.613742
-1529.940220 -3024.742514 213.962470
-1531.776985 -3025.192112 213.311198
-1533.613751 -3025.641709 212.659926
-1535.450516 -3026.091307 212.008654
-1537.287281 -3026.540904 211.357383
-1539.124047 -3026.990501 210.706111
-1540.960812 -3027.440099 210.054839
-1542.797578 -3027.889696 209.403567
-1544.634343 -3028.339294 208.752296
-1546.471109 -3028.788891 208.101024
-1548.307874 -3029.238488 207.449752
-1550.144639 -3029.688086 206.798480
-1551.981405 -3030.137683 206.147208
-1553.818170 -3030.587281 205.495937
-1555.654936 -3031.036878 204.844665
-1557.491701 -3031.486475 204.193393
-1559.328467 -3031.936073 203.542121
-1561.165232 -3032.385670 202.890850
-1563.001997 -3032.835268 202.239578
-1564.838763 -3033.284865 201.588306
-1566.675528 -3033.734462 200.937034
-1568.512294 -3034.184060 200.285762
-1570.349059 -3034.633657 199.634491
-1572.185825 -3035.083255 198.983219
-1574.022590 -3035.532852 198.331947
-1575.859355 -3035.982449 197.680675
-1577.696121 -3036.432047 197.029403
-1579.532886 -3036.881644 196.378132
-1581.369652 -3037.331242 195.726860
-1583.206417 -3037.780839 195.075588
-1585.043183 -3038.230436 194.424316
-1586.879948 -3038.680034 193.773045
-1588.716713 -3039.129631 193.121773
-1590.553479 -3039.579229 192.470501
-1592.390244 -3040.028826 191.819229
-1594.227010 -3040.478423 191.167957
-1596.063775 -3040.928021 190.516686
-1597.900541 -3041.377618 189.865414
-1599.737306 -3041.827216 189.214142
-1601.574071 -3042.276813 188.562870
-1603.410837 -3042.726411 187.911599
-1605.247602 -3043.176008 187.260327
-1607.084368 -3043.625605 186.609055
-1608.921133 -3044.075203 185.957783
-1610.757899 -3044.524800 185.306511
-1612.594664 -3044.974398 184.655240
-1614.431429 -3045.423995 184.003968
-1616.268195 -3045.873592 183.352696
-1618.104960 -3046.323190 182.701424
-1619.941726 -3046.772787 182.050153
-1621.778491 -3047.222385 181.398881
-1623.615257 -3047.671982 180.747609
-1625.452022 -3048.121579 180.096337
-1627.288787 -3048.571177 179.445065
-1629.125553 -3049.020774 178.793794
-1630.962318 -3049.470372 178.142522
-1632.799084 -3049.919969 177.491250
-1634.635849 -3050.369566 176.839978
-1636.472615 -3050.819164 176.188706
-1638.309380 -3051.268761 175.537435
-1640.146145 -3051.718359 174.886163
-1641.982911 -3052.167956 174.234891
-1643.819676 -3052.617553 173.583619
-1645.656442 -3053.067151 172.932348
-1647.493207 -3053.516748 172.281076
-1649.329973 -3053.966346 171.629804
-1651.166738 -3054.415943 170.978532
-1653.003503 -3054.865540 170.327260
-1654.840269 -3055.315138 169.675989
-1656.677034 -3055.764735 169.024717
-1658.513800 -3056.214333 168.373445
-1660.350565 -3056.663930 167.722173
-1662.187331 -3057.113527 167.070902
-1664.024096 -3057.563125 166.419630
-1665.860861 -3058.012722 165.768358
-1667.697627 -3058.462320 165.117086
-1669.534392 -3058.911917 164.465814
-1671.371158 -3059.361515 163.814543
-1673.207923 -3059.811112 163.163271
-1675.044689 -3060.260709 162.511999
-1676.881454 -3060.710307 161.860727
-1678.718219 -3061.159904 161.209455
-1680.554985 -3061.609502 160.558184
-1682.391750 -3062.059099 159.906912
-1684.228516 -3062.508696 159.255640
-1686.065281 -3062.958294 158.604368
-1687.902047 -3063.407891 157.953097
-1689.738812 -3063.857489 157.301825
-1691.575577 -3064.307086 156.650553
-1693.412343 -3064.756683 155.999281
-1695.249108 -3065.206281 155.348009
-1697.085874 -3065.655878 154.696738
-1698.922639 -3066.105476 154.045466
-1700.759405 -3066.555073 153.394194
-1702.596170 -3067.004670 152.742922
-1704.432935 -3067.454268 152.091651
-1706.269701 -3067.903865 151.440379
-1708.106466 -3068.353463 150.789107
-1709.943232 -3068.803060 150.137835
-1711.779997 -3069.252657 149.486563
-1713.616763 -3069.702255 148.835292
-1715.453528 -3070.151852 148.184020
-1717.290293 -3070.601450 147.532748
-1719.127059 -3071.051047 146.881476
-1720.963824 -3071.500644 146.230205
-1722.800590 -3071.950242 145.578933
-1724.637355 -3072.399839 144.927661
-1726.474121 -3072.849437 144.276389
-1728.310886 -3073.299034 143.625117
-1730.147651 -3073.748632 142.973846
-1731.984417 -3074.198229 142.322574
-1733.821182 -3074.647826 141.671302
-1735.657948 -3075.097424 141.020030
-1737.494713 -3075.547021 140.368758
-1739.331479 -3075.996619 139.717487
-1741.168244 -3076.446216 139.066215
-1743.005009 -3076.895813 138.414943
-1744.841775 -3077.345411 137.763671
-1746.678540 -3077.795008 137.112400
-1748.515306 -3078.244606 136.461128
-1750.352071 -3078.694203 135.809856
-1752.188837 -3079.143800 135.158584
-1754.025602 -3079.593398 134.507312
-1755.862367 -3080.042995 133.856041
-1757.699133 -3080.492593 133.204769
-1759.535898 -3080.942190 132.553497
-1761.372664 -3081.391787 131.902225
-1763.209429 -3081.841385 131.250954
-1765.046195 -3082.290982 130.599682
-1766.882960 -3082.740580 129.948410
-1768.719725 -3083.190177 129.297138
-1770.556491 -3083.639774 128.645866
-1772.393256 -3084.089372 127.994595
-1774.230022 -3084.538969 127.343323
-1776.066787 -3084.988567 126.692051
-1777.903553 -3085.438164 126.040779
-1779.740318 -3085.887761 125.389508
-1781.577083 -3086.337359 124.738236
-1783.413849 -3086.786956 124.086964
-1785.250614 -3087.236554 123.435692
-1787.087380 -3087.686151 122.784420
-1788.924145 -3088.135748 122.133149
-1790.760911 -3088.585346 121.481877
-1792.597676 -3089.034943 120.830605
-1794.434441 -3089.484541 120.179333
