699.354471 -2283.712829 295.620101
698.716388 -2281.881810 295.129979
698.078306 -2280.050790 294.639858
697.440223 -2278.219771 294.149737
696.802141 -2276.388752 293.659615
696.164058 -2274.557732 293.169494
695.525976 -2272.726713 292.679373
694.887893 -2270.895694 292.189251
694.249811 -2269.064674 291.699130
693.611728 -2267.233655 291.209009
692.973646 -2265.402636 290.718887
692.335563 -2263.571616 290.228766
691.697481 -2261.740597 289.738645
691.059398 -2259.909578 289.248523
690.421316 -2258.078558 288.758402
689.783233 -2256.247539 288.268281
689.145151 -2254.416520 287.778159
688.507068 -2252.585500 287.288038
687.868986 -2250.754481 286.797917
687.230903 -2248.923462 286.307795
686.592821 -2247.092442 285.817674
685.954738 -2245.261423 285.327553
685.316656 -2243.430404 284.837431
684.678573 -2241.599384 284.347310
684.040491 -2239.768365 283.857189
683.402408 -2237.937346 283.367067
682.764326 -2236.106326 282.876946
682.126243 -2234.275307 282.386825
681.488161 -2232.444288 281.896703
680.850078 -2230.613268 281.406582
680.211996 -2228.782249 280.916461
679.573913 -2226.951230 280.426339
678.935831 -2225.120210 279.936218
678.297748 -2223.289191 279.446097
677.659666 -2221.458172 278.955975
677.021583 -2219.627152 278.465854
676.383501 -2217.796133 277.975733
675.745418 -2215.965114 277.485611
675.107336 -2214.134094 276.995490
674.469253 -2212.303075 276.505369
673.831171 -2210.472056 276.015247
673.193088 -2208.641036 275.525126
672.555006 -2206.810017 275.035005
671.916923 -2204.978998 274.544883
671.278841 -2203.147978 274.054762
670.640758 -2201.316959 273.564641
670.002676 -2199.485940 273.074519
669.364593 -2197.654920 272.584398
668.726511 -2195.823901 272.094277
668.088428 -2193.992882 271.604155
667.450346 -2192.161862 271.114034
666.812263 -2190.330843 270.623913
666.000000 -2188.000000 270.000000
666.682841 -2186.394541 269.022130
667.365682 -2184.789083 268.044259
668.048524 -2183.183624 267.066389
668.731365 -2181.578165 266.088519
669.414206 -2179.972707 265.110649
670.097047 -2178.367248 264.132778
670.779888 -2176.761789 263.154908
671.462730 -2175.156331 262.177038
672.145571 -2173.550872 261.199167
672.828412 -2171.945413 260.221297
673.511253 -2170.339954 259.243427
674.194094 -2168.734496 258.265557
674.876936 -2167.129037 257.287686
675.559777 -2165.523578 256.309816
676.242618 -2163.918120 255.331946
676.925459 -2162.312661 254.354075
677.608300 -2160.707202 253.376205
678.291142 -2159.101744 252.398335
678.973983 -2157.496285 251.420464
679.656824 -2155.890826 250.442594
680.339665 -2154.285368 249.464724
681.022506 -2152.679909 248.486854
681.705347 -2151.074450 247.508983
682.388189 -2149.468992 246.531113
683.071030 -2147.863533 245.553243
683.753871 -2146.258074 244.575372
684.436712 -2144.652615 243.597502
685.119553 -2143.047157 242.619632
685.802395 -2141.441698 241.641762
686.485236 -2139.836239 240.663891
687.168077 -2138.230781 239.686021
687.850918 -2136.625322 238.708151
688.533759 -2135.019863 237.730280
689.216601 -2133.414405 236.752410
689.899442 -2131.808946 235.774540
690.582283 -2130.203487 234.796670
691.265124 -2128.598029 233.818799
691.947965 -2126.992570 232.840929
692.630807 -2125.387111 231.863059
693.313648 -2123.781653 230.885188
693.996489 -2122.176194 229.907318
694.679330 -2120.570735 228.929448
695.362171 -2118.965276 227.951577
696.045013 -2117.359818 226.973707
696.727854 -2115.754359 225.995837
697.410695 -2114.148900 225.017967
698.093536 -2112.543442 224.040096
698.776377 -2110.937983 223.062226
699.459219 -2109.332524 222.084356
700.142060 -2107.727066 221.106485
700.824901 -2106.121607 220.128615
701.507742 -2104.516148 219.150745
702.190583 -2102.910690 218.172875
702.873425 -2101.305231 217.195004
703.556266 -2099.699772 216.217134
704.239107 -2098.094314 215.239264
704.921948 -2096.488855 214.261393
705.604789 -2094.883396 213.283523
706.287630 -2093.277937 212.305653
706.970472 -2091.672479 211.327783
707.653313 -2090.067020 210.349912
708.336154 -2088.461561 209.372042
709.018995 -2086.856103 208.394172
709.701836 -2085.250644 207.416301
710.384678 -2083.645185 206.438431
711.067519 -2082.039727 205.460561
711.750360 -2080.434268 204.482690
712.433201 -2078.828809 203.504820
713.116042 -2077.223351 202.526950
713.798884 -2075.617892 201.549080
714.481725 -2074.012433 200.571209
715.164566 -2072.406975 199.593339
715.847407 -2070.801516 198.615469
716.530248 -2069.196057 197.637598
717.213090 -2067.590598 196.659728
717.895931 -2065.985140 195.681858
718.578772 -2064.379681 194.703988
719.261613 -2062.774222 193.726117
719.944454 -2061.168764 192.748247
720.627296 -2059.563305 191.770377
721.310137 -2057.957846 190.792506
721.992978 -2056.352388 189.814636
722.675819 -2054.746929 188.836766
723.358660 -2053.141470 187.858896
724.041502 -2051.536012 186.881025
724.724343 -2049.930553 185.903155
725.407184 -2048.325094 184.925285
726.090025 -2046.719636 183.947414
726.772866 -2045.114177 182.969544
727.455708 -2043.508718 181.991674
728.138549 -2041.903259 181.013803
728.821390 -2040.297801 180.035933
729.504231 -2038.692342 179.058063
730.187072 -2037.086883 178.080193
730.869914 -2035.481425 177.102322
731.552755 -2033.875966 176.124452
732.235596 -2032.270507 175.146582
732.918437 -2030.665049 174.168711
733.601278 -2029.059590 173.190841
734.284119 -2027.454131 172.212971
734.966961 -2025.848673 171.235101
735.649802 -2024.243214 170.257230
736.332643 -2022.637755 169.279360
737.015484 -2021.032297 168.301490
737.698325 -2019.426838 167.323619
738.381167 -2017.821379 166.345749
739.064008 -2016.215920 165.367879
739.746849 -2014.610462 164.390009
740.429690 -2013.005003 163.412138
741.112531 -2011.399544 162.434268
741.795373 -2009.794086 161.456398
742.478214 -2008.188627 160.478527
743.161055 -2006.583168 159.500657
743.843896 -2004.977710 158.522787
744.526737 -2003.372251 157.544917
745.209579 -2001.766792 156.567046
745.892420 -2000.161334 155.589176
746.575261 -1998.555875 154.611306
747.258102 -1996.950416 153.633435
747.940943 -1995.344958 152.655565
748.623785 -1993.739499 151.677695
749.306626 -1992.134040 150.699824
749.989467 -1990.528581 149.721954
750.672308 -1988.923123 148.744084
751.355149 -1987.317664 147.766214
752.037991 -1985.712205 146.788343
752.720832 -1984.106747 145.810473
753.403673 -1982.501288 144.832603
754.086514 -1980.895829 143.854732
754.769355 -1979.290371 142.876862
755.452197 -1977.684912 141.898992
756.135038 -1976.079453 140.921122
756.817879 -1974.473995 139.943251
757.500720 -1972.868536 138.965381
758.183561 -1971.263077 137.987511
758.866402 -1969.657619 137.009640
759.571429 -1968.000000 136.000000
760.560211 -1966.833631 134.710856
761.548994 -1965.667263 133.421711
762.537776 -1964.500894 132.132567
763.526559 -1963.334525 130.843423
764.515341 -1962.168156 129.554278
765.504124 -1961.001788 128.265134
766.492906 -1959.835419 126.975989
767.481689 -1958.669050 125.686845
768.470471 -1957.502682 124.397701
769.459254 -1956.336313 123.108556
770.448036 -1955.169944 121.819412
771.436819 -1954.003575 120.530268
772.425601 -1952.837207 119.241123
773.414384 -1951.670838 117.951979
774.403166 -1950.504469 116.662835
775.391949 -1949.338101 115.373690
776.380731 -1948.171732 114.084546
777.369514 -1947.005363 112.795401
778.358296 -1945.838994 111.506257
779.347079 -1944.672626 110.217113
780.335861 -1943.506257 108.927968
781.324644 -1942.339888 107.638824
782.313426 -1941.173520 106.349680
783.302209 -1940.007151 105.060535
784.290991 -1938.840782 103.771391
785.279774 -1937.674413 102.482246
786.268556 -1936.508045 101.193102
787.257339 -1935.341676 99.903958
788.246121 -1934.175307 98.614813
789.234904 -1933.008939 97.325669
790.223686 -1931.842570 96.036525
791.212469 -1930.676201 94.747380
792.201251 -1929.509832 93.458236
793.190034 -1928.343464 92.169092
794.178816 -1927.177095 90.879947
795.167599 -1926.010726 89.590803
796.156381 -1924.844358 88.301658
797.145164 -1923.677989 87.012514
798.133946 -1922.511620 85.723370
799.122729 -1921.345252 84.434225
800.111511 -1920.178883 83.145081
801.100294 -1919.012514 81.855937
802.089076 -1917.846145 80.566792
803.077859 -1916.679777 79.277648
804.066641 -1915.513408 77.988504
805.055424 -1914.347039 76.699359
806.044206 -1913.180671 75.410215
807.032989 -1912.014302 74.121070
808.021771 -1910.847933 72.831926
809.010554 -1909.681564 71.542782
809.999336 -1908.515196 70.253637
810.988119 -1907.348827 68.964493
811.976901 -1906.182458 67.675349
812.965683 -1905.016090 66.386204
813.954466 -1903.849721 65.097060
814.943248 -1902.683352 63.807915
815.932031 -1901.516983 62.518771
816.920813 -1900.350615 61.229627
817.909596 -1899.184246 59.940482
818.898378 -1898.017877 58.651338
819.887161 -1896.851509 57.362194
820.875943 -1895.685140 56.073049
821.864726 -1894.518771 54.783905
822.853508 -1893.352402 53.494761
824.000000 -1892.000000 52.000000
824.000000 -1890.000000 52.000000
824.000000 -1888.000000 52.000000
824.000000 -1886.000000 52.000000
824.000000 -1884.000000 52.000000
824.000000 -1882.000000 52.000000
824.000000 -1880.000000 52.000000
824.000000 -1876.000000 52.000000
824.000000 -1874.000000 52.000000
824.000000 -1872.000000 52.000000
824.000000 -1870.000000 52.000000
824.000000 -1868.000000 52.000000
824.000000 -1866.000000 52.000000
824.000000 -1864.000000 52.000000
824.000000 -1862.000000 52.000000
824.000000 -1860.000000 52.000000
824.000000 -1858.000000 52.000000
824.000000 -1856.000000 52.000000
824.000000 -1854.000000 52.000000
824.000000 -1852.000000 52.000000
824.000000 -1850.000000 52.000000
824.000000 -1848.000000 52.000000
824.000000 -1846.000000 52.000000
824.000000 -1844.000000 52.000000
824.000000 -1842.000000 52.000000
824.000000 -1840.000000 52.000000
824.000000 -1838.000000 52.000000
824.000000 -1836.000000 52.000000
824.000000 -1834.000000 52.000000
824.000000 -1832.000000 52.000000
824.000000 -1830.000000 52.000000
824.000000 -1828.000000 52.000000
824.000000 -1826.000000 52.000000
824.000000 -1824.000000 52.000000
824.000000 -1822.000000 52.000000
824.000000 -1820.000000 52.000000
824.000000 -1818.000000 52.000000
824.000000 -1816.000000 52.000000
824.000000 -1814.000000 52.000000
824.000000 -1812.000000 52.000000
824.000000 -1810.000000 52.000000
824.000000 -1808.000000 52.000000
824.000000 -1806.000000 52.000000
824.000000 -1804.000000 52.000000
824.000000 -1802.000000 52.000000
824.000000 -1800.000000 52.000000
824.000000 -1798.000000 52.000000
824.000000 -1796.000000 52.000000
824.000000 -1794.000000 52.000000
824.000000 -1792.000000 52.000000
824.000000 -1790.000000 52.000000
824.000000 -1788.000000 52.000000
824.000000 -1786.000000 52.000000
824.000000 -1784.000000 52.000000
824.000000 -1782.000000 52.000000
824.000000 -1780.000000 52.000000
824.000000 -1778.000000 52.000000
824.000000 -1776.000000 52.000000
824.000000 -1774.000000 52.000000
824.000000 -1772.000000 52.000000
824.000000 -1770.000000 52.000000
824.000000 -1768.000000 52.000000
824.000000 -1766.000000 52.000000
824.000000 -1764.000000 52.000000
824.000000 -1762.000000 52.000000
824.000000 -1760.000000 52.000000
824.000000 -1758.000000 52.000000
824.000000 -1756.000000 52.000000
824.000000 -1754.000000 52.000000
824.000000 -1752.000000 52.000000
824.000000 -1750.000000 52.000000
824.000000 -1748.000000 52.000000
824.000000 -1746.000000 52.000000
824.000000 -1744.000000 52.000000
824.000000 -1742.000000 52.000000
824.000000 -1740.000000 52.000000
824.000000 -1738.000000 52.000000
824.000000 -1736.000000 52.000000
824.000000 -1734.000000 52.000000
824.000000 -1732.000000 52.000000
824.000000 -1730.000000 52.000000
824.000000 -1728.000000 52.000000
824.000000 -1726.000000 52.000000
824.000000 -1724.000000 52.000000
824.000000 -1722.000000 52.000000
824.000000 -1720.000000 52.000000
824.000000 -1718.000000 52.000000
824.000000 -1716.000000 52.000000
824.000000 -1714.000000 52.000000
824.000000 -1712.000000 52.000000
824.000000 -1710.000000 52.000000
824.000000 -1708.000000 52.000000
824.000000 -1706.000000 52.000000
824.000000 -1704.000000 52.000000
824.000000 -1702.000000 52.000000
824.000000 -1700.000000 52.000000
824.000000 -1698.000000 52.000000
824.000000 -1696.000000 52.000000
824.000000 -1694.000000 52.000000
824.000000 -1692.000000 52.000000
824.000000 -1690.000000 52.000000
824.000000 -1688.000000 52.000000
824.000000 -1686.000000 52.000000
824.000000 -1684.000000 52.000000
824.000000 -1682.000000 52.000000
824.000000 -1680.000000 52.000000
824.000000 -1678.000000 52.000000
824.000000 -1676.000000 52.000000
824.000000 -1674.000000 52.000000
824.000000 -1672.000000 52.000000
824.000000 -1670.000000 52.000000
824.000000 -1668.000000 52.000000
824.000000 -1666.000000 52.000000
824.000000 -1664.000000 52.000000
824.000000 -1662.000000 52.000000
824.000000 -1660.000000 52.000000
824.000000 -1658.000000 52.000000
824.000000 -1656.000000 52.000000
824.000000 -1652.000000 52.000000
824.000000 -1650.000000 52.000000
824.000000 -1648.000000 52.000000
824.000000 -1646.000000 52.000000
824.000000 -1644.000000 52.000000
824.000000 -1642.000000 52.000000
824.000000 -1640.000000 52.000000
824.000000 -1636.000000 52.000000
824.405904 -1634.062798 52.287210
824.811808 -1632.125596 52.574420
825.217712 -1630.188393 52.861630
825.623616 -1628.251191 53.148840
826.029520 -1626.313989 53.436050
826.435424 -1624.376787 53.723260
826.841328 -1622.439585 54.010470
827.247232 -1620.502382 54.297680
827.653135 -1618.565180 54.584890
828.059039 -1616.627978 54.872100
828.464943 -1614.690776 55.159310
828.870847 -1612.753573 55.446520
829.276751 -1610.816371 55.733730
829.682655 -1608.879169 56.020940
830.088559 -1606.941967 56.308150
830.494463 -1605.004765 56.595360
830.900367 -1603.067562 56.882570
831.306271 -1601.130360 57.169780
831.712175 -1599.193158 57.456990
832.118079 -1597.255956 57.744200
832.523983 -1595.318754 58.031410
832.929887 -1593.381551 58.318620
833.335791 -1591.444349 58.605830
833.741695 -1589.507147 58.893040
834.147599 -1587.569945 59.180250
834.553503 -1585.632743 59.467460
834.959406 -1583.695540 59.754670
835.365310 -1581.758338 60.041880
835.771214 -1579.821136 60.329090
836.177118 -1577.883934 60.616300
836.583022 -1575.946732 60.903510
836.988926 -1574.009529 61.190720
837.394830 -1572.072327 61.477930
837.800734 -1570.135125 61.765140
838.206638 -1568.197923 62.052350
838.612542 -1566.260720 62.339560
839.018446 -1564.323518 62.626770
839.424350 -1562.386316 62.913980
839.830254 -1560.449114 63.201190
840.236158 -1558.511912 63.488400
840.642062 -1556.574709 63.775610
841.047966 -1554.637507 64.062820
841.453870 -1552.700305 64.350030
841.859773 -1550.763103 64.637240
842.265677 -1548.825901 64.924450
842.671581 -1546.888698 65.211660
843.077485 -1544.951496 65.498870
843.483389 -1543.014294 65.786080
843.889293 -1541.077092 66.073290
844.295197 -1539.139890 66.360500
844.701101 -1537.202687 66.647711
845.107005 -1535.265485 66.934921
845.512909 -1533.328283 67.222131
845.918813 -1531.391081 67.509341
846.324717 -1529.453878 67.796551
846.730621 -1527.516676 68.083761
847.136525 -1525.579474 68.370971
847.542429 -1523.642272 68.658181
847.948333 -1521.705070 68.945391
848.354237 -1519.767867 69.232601
848.760140 -1517.830665 69.519811
849.166044 -1515.893463 69.807021
849.571948 -1513.956261 70.094231
849.977852 -1512.019059 70.381441
850.383756 -1510.081856 70.668651
850.789660 -1508.144654 70.955861
851.195564 -1506.207452 71.243071
851.601468 -1504.270250 71.530281
852.007372 -1502.333048 71.817491
852.413276 -1500.395845 72.104701
852.819180 -1498.458643 72.391911
853.225084 -1496.521441 72.679121
853.630988 -1494.584239 72.966331
854.036892 -1492.647037 73.253541
854.442796 -1490.709834 73.540751
854.848700 -1488.772632 73.827961
855.254604 -1486.835430 74.115171
855.660508 -1484.898228 74.402381
856.066411 -1482.961025 74.689591
856.472315 -1481.023823 74.976801
856.878219 -1479.086621 75.264011
857.284123 -1477.149419 75.551221
857.690027 -1475.212217 75.838431
858.095931 -1473.275014 76.125641
858.501835 -1471.337812 76.412851
858.907739 -1469.400610 76.700061
859.313643 -1467.463408 76.987271
859.719547 -1465.526206 77.274481
860.125451 -1463.589003 77.561691
860.531355 -1461.651801 77.848901
860.937259 -1459.714599 78.136111
861.343163 -1457.777397 78.423321
861.749067 -1455.840195 78.710531
862.154971 -1453.902992 78.997741
862.560875 -1451.965790 79.284951
862.966778 -1450.028588 79.572161
863.571429 -1447.142857 80.000000
863.183240 -1445.180891 80.000000
862.795051 -1443.218926 80.000000
862.406862 -1441.256960 80.000000
862.018673 -1439.294994 80.000000
861.630484 -1437.333029 80.000000
861.242295 -1435.371063 80.000000
860.854106 -1433.409097 80.000000
860.465917 -1431.447132 80.000000
860.077728 -1429.485166 80.000000
859.689539 -1427.523200 80.000000
859.301350 -1425.561235 80.000000
858.913161 -1423.599269 80.000000
858.524973 -1421.637303 80.000000
858.136784 -1419.675338 80.000000
857.748595 -1417.713372 80.000000
857.360406 -1415.751406 80.000000
856.972217 -1413.789440 80.000000
856.584028 -1411.827475 80.000000
856.195839 -1409.865509 80.000000
855.807650 -1407.903543 80.000000
855.419461 -1405.941578 80.000000
855.031272 -1403.979612 80.000000
854.643083 -1402.017646 80.000000
854.254894 -1400.055681 80.000000
853.866705 -1398.093715 80.000000
853.478517 -1396.131749 80.000000
853.090328 -1394.169784 80.000000
852.702139 -1392.207818 80.000000
852.313950 -1390.245852 80.000000
851.925761 -1388.283887 80.000000
851.537572 -1386.321921 80.000000
851.149383 -1384.359955 80.000000
850.761194 -1382.397989 80.000000
850.373005 -1380.436024 80.000000
849.984816 -1378.474058 80.000000
849.596627 -1376.512092 80.000000
849.208438 -1374.550127 80.000000
848.820249 -1372.588161 80.000000
848.432060 -1370.626195 80.000000
848.043872 -1368.664230 80.000000
847.655683 -1366.702264 80.000000
847.267494 -1364.740298 80.000000
846.879305 -1362.778333 80.000000
846.491116 -1360.816367 80.000000
846.102927 -1358.854401 80.000000
845.714738 -1356.892436 80.000000
845.326549 -1354.930470 80.000000
844.938360 -1352.968504 80.000000
844.550171 -1351.006538 80.000000
844.161982 -1349.044573 80.000000
843.773793 -1347.082607 80.000000
843.385604 -1345.120641 80.000000
842.997416 -1343.158676 80.000000
842.609227 -1341.196710 80.000000
842.221038 -1339.234744 80.000000
841.832849 -1337.272779 80.000000
841.444660 -1335.310813 80.000000
841.056471 -1333.348847 80.000000
840.668282 -1331.386882 80.000000
840.280093 -1329.424916 80.000000
839.891904 -1327.462950 80.000000
839.503715 -1325.500985 80.000000
839.115526 -1323.539019 80.000000
838.727337 -1321.577053 80.000000
838.339148 -1319.615087 80.000000
837.950960 -1317.653122 80.000000
837.562771 -1315.691156 80.000000
837.174582 -1313.729190 80.000000
836.786393 -1311.767225 80.000000
836.398204 -1309.805259 80.000000
836.010015 -1307.843293 80.000000
835.621826 -1305.881328 80.000000
835.233637 -1303.919362 80.000000
834.845448 -1301.957396 80.000000
834.457259 -1299.995431 80.000000
834.069070 -1298.033465 80.000000
833.680881 -1296.071499 80.000000
833.292692 -1294.109534 80.000000
832.904503 -1292.147568 80.000000
832.516315 -1290.185602 80.000000
832.128126 -1288.223636 80.000000
831.739937 -1286.261671 80.000000
831.351748 -1284.299705 80.000000
830.963559 -1282.337739 80.000000
830.575370 -1280.375774 80.000000
830.187181 -1278.413808 80.000000
829.798992 -1276.451842 80.000000
829.410803 -1274.489877 80.000000
829.022614 -1272.527911 80.000000
828.634425 -1270.565945 80.000000
828.246236 -1268.603980 80.000000
827.858047 -1266.642014 80.000000
827.469859 -1264.680048 80.000000
827.081670 -1262.718083 80.000000
826.693481 -1260.756117 80.000000
826.305292 -1258.794151 80.000000
825.917103 -1256.832185 80.000000
825.528914 -1254.870220 80.000000
825.140725 -1252.908254 80.000000
824.752536 -1250.946288 80.000000
824.000000 -1247.142857 80.000000
824.363192 -1245.176111 80.000000
824.726385 -1243.209364 80.000000
825.089577 -1241.242618 80.000000
825.452770 -1239.275872 80.000000
825.815962 -1237.309125 80.000000
826.179155 -1235.342379 80.000000
826.542347 -1233.375633 80.000000
826.905540 -1231.408886 80.000000
827.268732 -1229.442140 80.000000
827.631925 -1227.475394 80.000000
827.995117 -1225.508647 80.000000
828.358310 -1223.541901 80.000000
828.721502 -1221.575155 80.000000
829.084695 -1219.608408 80.000000
829.447887 -1217.641662 80.000000
829.811080 -1215.674916 80.000000
830.174272 -1213.708169 80.000000
830.537465 -1211.741423 80.000000
830.900657 -1209.774676 80.000000
831.263850 -1207.807930 80.000000
831.627042 -1205.841184 80.000000
831.990235 -1203.874437 80.000000
832.353427 -1201.907691 80.000000
832.716620 -1199.940945 80.000000
833.079812 -1197.974198 80.000000
833.443005 -1196.007452 80.000000
833.806197 -1194.040706 80.000000
834.169390 -1192.073959 80.000000
834.532582 -1190.107213 80.000000
834.895775 -1188.140467 80.000000
835.258967 -1186.173720 80.000000
835.622160 -1184.206974 80.000000
835.985352 -1182.240228 80.000000
836.348545 -1180.273481 80.000000
836.711737 -1178.306735 80.000000
837.074930 -1176.339988 80.000000
837.438122 -1174.373242 80.000000
837.801315 -1172.406496 80.000000
838.164507 -1170.439749 80.000000
838.527700 -1168.473003 80.000000
838.890892 -1166.506257 80.000000
839.254085 -1164.539510 80.000000
839.617277 -1162.572764 80.000000
839.980470 -1160.606018 80.000000
840.343662 -1158.639271 80.000000
840.706855 -1156.672525 80.000000
841.070047 -1154.705779 80.000000
841.433240 -1152.739032 80.000000
841.796432 -1150.772286 80.000000
842.159625 -1148.805540 80.000000
842.522817 -1146.838793 80.000000
842.886010 -1144.872047 80.000000
843.249202 -1142.905300 80.000000
843.612395 -1140.938554 80.000000
843.975587 -1138.971808 80.000000
844.338780 -1137.005061 80.000000
844.701972 -1135.038315 80.000000
845.065165 -1133.071569 80.000000
845.428357 -1131.104822 80.000000
845.791550 -1129.138076 80.000000
846.154742 -1127.171330 80.000000
846.517935 -1125.204583 80.000000
846.881127 -1123.237837 80.000000
847.244320 -1121.271091 80.000000
847.607512 -1119.304344 80.000000
847.970705 -1117.337598 80.000000
848.333897 -1115.370852 80.000000
848.697090 -1113.404105 80.000000
849.060282 -1111.437359 80.000000
849.423475 -1109.470613 80.000000
849.786667 -1107.503866 80.000000
850.149859 -1105.537120 80.000000
850.513052 -1103.570373 80.000000
850.876244 -1101.603627 80.000000
851.239437 -1099.636881 80.000000
851.602629 -1097.670134 80.000000
851.965822 -1095.703388 80.000000
852.329014 -1093.736642 80.000000
852.692207 -1091.769895 80.000000
853.055399 -1089.803149 80.000000
853.418592 -1087.836403 80.000000
853.781784 -1085.869656 80.000000
854.144977 -1083.902910 80.000000
854.508169 -1081.936164 80.000000
854.871362 -1079.969417 80.000000
855.234554 -1078.002671 80.000000
855.597747 -1076.035925 80.000000
855.960939 -1074.069178 80.000000
856.324132 -1072.102432 80.000000
856.687324 -1070.135685 80.000000
857.050517 -1068.168939 80.000000
857.413709 -1066.202193 80.000000
857.776902 -1064.235446 80.000000
858.140094 -1062.268700 80.000000
858.503287 -1060.301954 80.000000
858.866479 -1058.335207 80.000000
859.229672 -1056.368461 80.000000
859.592864 -1054.401715 80.000000
859.956057 -1052.434968 80.000000
860.319249 -1050.468222 80.000000
860.682442 -1048.501476 80.000000
861.045634 -1046.534729 80.000000
861.408827 -1044.567983 80.000000
861.772019 -1042.601237 80.000000
862.135212 -1040.634490 80.000000
862.498404 -1038.667744 80.000000
862.861597 -1036.700997 80.000000
863.571429 -1032.857143 80.000000
863.165525 -1030.919941 79.712790
862.759621 -1028.982738 79.425580
862.353717 -1027.045536 79.138370
861.947813 -1025.108334 78.851160
861.541909 -1023.171132 78.563950
861.136005 -1021.233930 78.276740
860.730101 -1019.296727 77.989530
860.324197 -1017.359525 77.702320
859.918293 -1015.422323 77.415110
859.512389 -1013.485121 77.127900
859.106485 -1011.547919 76.840690
858.700581 -1009.610716 76.553480
858.294677 -1007.673514 76.266270
857.888773 -1005.736312 75.979060
857.482869 -1003.799110 75.691850
857.076965 -1001.861908 75.404640
856.671062 -999.924705 75.117430
856.265158 -997.987503 74.830220
855.859254 -996.050301 74.543010
855.453350 -994.113099 74.255800
855.047446 -992.175896 73.968590
854.641542 -990.238694 73.681380
854.235638 -988.301492 73.394170
853.829734 -986.364290 73.106960
853.423830 -984.427088 72.819750
853.017926 -982.489885 72.532540
852.612022 -980.552683 72.245330
852.206118 -978.615481 71.958120
851.800214 -976.678279 71.670910
851.394310 -974.741077 71.383700
850.988406 -972.803874 71.096490
850.582502 -970.866672 70.809280
850.176598 -968.929470 70.522070
849.770695 -966.992268 70.234860
849.364791 -965.055066 69.947650
848.958887 -963.117863 69.660440
848.552983 -961.180661 69.373230
848.147079 -959.243459 69.086020
847.741175 -957.306257 68.798810
847.335271 -955.369054 68.511600
846.929367 -953.431852 68.224390
846.523463 -951.494650 67.937180
846.117559 -949.557448 67.649970
845.711655 -947.620246 67.362760
845.305751 -945.683043 67.075550
844.899847 -943.745841 66.788340
844.493943 -941.808639 66.501130
844.088039 -939.871437 66.213920
843.682135 -937.934235 65.926710
843.276231 -935.997032 65.639500
842.870328 -934.059830 65.352289
842.464424 -932.122628 65.065079
842.058520 -930.185426 64.777869
841.652616 -928.248224 64.490659
841.246712 -926.311021 64.203449
840.840808 -924.373819 63.916239
840.434904 -922.436617 63.629029
840.029000 -920.499415 63.341819
839.623096 -918.562213 63.054609
839.217192 -916.625010 62.767399
838.811288 -914.687808 62.480189
838.405384 -912.750606 62.192979
837.999480 -910.813404 61.905769
837.593576 -908.876201 61.618559
837.187672 -906.938999 61.331349
836.781768 -905.001797 61.044139
836.375864 -903.064595 60.756929
835.969960 -901.127393 60.469719
835.564057 -899.190190 60.182509
835.158153 -897.252988 59.895299
834.752249 -895.315786 59.608089
834.346345 -893.378584 59.320879
833.940441 -891.441382 59.033669
833.534537 -889.504179 58.746459
833.128633 -887.566977 58.459249
832.722729 -885.629775 58.172039
832.316825 -883.692573 57.884829
831.910921 -881.755371 57.597619
831.505017 -879.818168 57.310409
831.099113 -877.880966 57.023199
830.693209 -875.943764 56.735989
830.287305 -874.006562 56.448779
829.881401 -872.069359 56.161569
829.475497 -870.132157 55.874359
829.069593 -868.194955 55.587149
828.663690 -866.257753 55.299939
828.257786 -864.320551 55.012729
827.851882 -862.383348 54.725519
827.445978 -860.446146 54.438309
827.040074 -858.508944 54.151099
826.634170 -856.571742 53.863889
826.228266 -854.634540 53.576679
825.822362 -852.697337 53.289469
825.416458 -850.760135 53.002259
825.010554 -848.822933 52.715049
824.604650 -846.885731 52.427839
824.000000 -844.000000 52.000000
824.000000 -843.105573 53.788854
824.000000 -842.211146 55.577709
824.000000 -841.316718 57.366563
824.000000 -840.422291 59.155418
824.000000 -839.527864 60.944272
824.000000 -838.633437 62.733126
824.000000 -837.739010 64.521981
824.000000 -836.844582 66.310835
824.000000 -835.950155 68.099689
824.000000 -835.055728 69.888544
824.000000 -834.161301 71.677398
824.000000 -833.266874 73.466253
824.000000 -832.372447 75.255107
824.000000 -831.478019 77.043961
824.000000 -830.583592 78.832816
824.000000 -829.689165 80.621670
824.000000 -828.000000 84.000000
822.607950 -826.625422 84.415611
821.215899 -825.250845 84.831222
819.823849 -823.876267 85.246832
818.431799 -822.501690 85.662443
817.039748 -821.127112 86.078054
815.647698 -819.752535 86.493665
814.255647 -818.377957 86.909275
812.863597 -817.003380 87.324886
811.471547 -815.628802 87.740497
810.079496 -814.254224 88.156108
808.687446 -812.879647 88.571719
807.295396 -811.505069 88.987329
805.903345 -810.130492 89.402940
804.511295 -808.755914 89.818551
803.119245 -807.381337 90.234162
801.727194 -806.006759 90.649772
800.335144 -804.632181 91.065383
798.943093 -803.257604 91.480994
797.551043 -801.883026 91.896605
796.158993 -800.508449 92.312216
794.766942 -799.133871 92.727826
793.374892 -797.759294 93.143437
791.982842 -796.384716 93.559048
790.590791 -795.010139 93.974659
789.198741 -793.635561 94.390269
787.806691 -792.260983 94.805880
786.414640 -790.886406 95.221491
785.022590 -789.511828 95.637102
783.630539 -788.137251 96.052713
782.238489 -786.762673 96.468323
780.846439 -785.388096 96.883934
779.454388 -784.013518 97.299545
778.062338 -782.638941 97.715156
776.670288 -781.264363 98.130767
775.278237 -779.889785 98.546377
773.886187 -778.515208 98.961988
772.494137 -777.140630 99.377599
771.102086 -775.766053 99.793210
769.710036 -774.391475 100.208820
768.317986 -773.016898 100.624431
766.925935 -771.642320 101.040042
765.533885 -770.267742 101.455653
764.141834 -768.893165 101.871264
762.749784 -767.518587 102.286874
761.357734 -766.144010 102.702485
759.965683 -764.769432 103.118096
758.573633 -763.394855 103.533707
757.181583 -762.020277 103.949317
755.789532 -760.645700 104.364928
754.397482 -759.271122 104.780539
753.005432 -757.896544 105.196150
751.613381 -756.521967 105.611761
750.221331 -755.147389 106.027371
748.829280 -753.772812 106.442982
747.437230 -752.398234 106.858593
746.045180 -751.023657 107.274204
744.653129 -749.649079 107.689814
743.261079 -748.274502 108.105425
741.869029 -746.899924 108.521036
740.476978 -745.525346 108.936647
739.084928 -744.150769 109.352258
737.692878 -742.776191 109.767868
736.300827 -741.401614 110.183479
734.908777 -740.027036 110.599090
733.516726 -738.652459 111.014701
732.124676 -737.277881 111.430311
730.732626 -735.903303 111.845922
729.340575 -734.528726 112.261533
727.948525 -733.154148 112.677144
726.556475 -731.779571 113.092755
725.164424 -730.404993 113.508365
723.772374 -729.030416 113.923976
722.380324 -727.655838 114.339587
720.988273 -726.281261 114.755198
719.596223 -724.906683 115.170808
718.204172 -723.532105 115.586419
716.812122 -722.157528 116.002030
715.420072 -720.782950 116.417641
714.028021 -719.408373 116.833252
712.635971 -718.033795 117.248862
711.243921 -716.659218 117.664473
709.851870 -715.284640 118.080084
708.459820 -713.910063 118.495695
707.067770 -712.535485 118.911305
705.675719 -711.160907 119.326916
704.283669 -709.786330 119.742527
702.891618 -708.411752 120.158138
701.499568 -707.037175 120.573749
700.107518 -705.662597 120.989359
698.715467 -704.288020 121.404970
697.323417 -702.913442 121.820581
695.931367 -701.538864 122.236192
694.539316 -700.164287 122.651803
693.147266 -698.789709 123.067413
691.755216 -697.415132 123.483024
690.363165 -696.040554 123.898635
688.971115 -694.665977 124.314246
687.579064 -693.291399 124.729856
686.187014 -691.916822 125.145467
684.794964 -690.542244 125.561078
683.402913 -689.167666 125.976689
682.010863 -687.793089 126.392300
680.618813 -686.418511 126.807910
679.226762 -685.043934 127.223521
677.834712 -683.669356 127.639132
676.442662 -682.294779 128.054743
675.050611 -680.920201 128.470353
673.658561 -679.545624 128.885964
672.266510 -678.171046 129.301575
670.874460 -676.796468 129.717186
669.482410 -675.421891 130.132797
668.090359 -674.047313 130.548407
666.698309 -672.672736 130.964018
665.306259 -671.298158 131.379629
663.914208 -669.923581 131.795240
662.522158 -668.549003 132.210850
661.130108 -667.174425 132.626461
659.738057 -665.799848 133.042072
658.346007 -664.425270 133.457683
656.953957 -663.050693 133.873294
655.561906 -661.676115 134.288904
654.169856 -660.301538 134.704515
652.777805 -658.926960 135.120126
651.385755 -657.552383 135.535737
649.993705 -656.177805 135.951347
648.601654 -654.803227 136.366958
647.209604 -653.428650 136.782569
645.817554 -652.054072 137.198180
644.425503 -650.679495 137.613791
643.033453 -649.304917 138.029401
641.641403 -647.930340 138.445012
640.249352 -646.555762 138.860623
638.857302 -645.181185 139.276234
637.465251 -643.806607 139.691844
636.073201 -642.432029 140.107455
634.681151 -641.057452 140.523066
633.289100 -639.682874 140.938677
631.897050 -638.308297 141.354288
630.505000 -636.933719 141.769898
629.112949 -635.559142 142.185509
627.720899 -634.184564 142.601120
626.328849 -632.809986 143.016731
624.936798 -631.435409 143.432341
623.544748 -630.060831 143.847952
622.152697 -628.686254 144.263563
620.760647 -627.311676 144.679174
619.368597 -625.937099 145.094785
617.976546 -624.562521 145.510395
616.584496 -623.187944 145.926006
615.192446 -621.813366 146.341617
613.800395 -620.438788 146.757228
612.408345 -619.064211 147.172839
611.016295 -617.689633 147.588449
609.624244 -616.315056 148.004060
608.232194 -614.940478 148.419671
606.840143 -613.565901 148.835282
605.448093 -612.191323 149.250892
604.056043 -610.816746 149.666503
602.663992 -609.442168 150.082114
601.271942 -608.067590 150.497725
599.879892 -606.693013 150.913336
598.487841 -605.318435 151.328946
597.095791 -603.943858 151.744557
595.703741 -602.569280 152.160168
594.311690 -601.194703 152.575779
592.919640 -599.820125 152.991389
591.527589 -598.445547 153.407000
590.135539 -597.070970 153.822611
588.743489 -595.696392 154.238222
587.351438 -594.321815 154.653833
585.959388 -592.947237 155.069443
584.567338 -591.572660 155.485054
583.175287 -590.198082 155.900665
581.783237 -588.823505 156.316276
580.391187 -587.448927 156.731886
578.999136 -586.074349 157.147497
577.607086 -584.699772 157.563108
576.215035 -583.325194 157.978719
574.822985 -581.950617 158.394330
573.430935 -580.576039 158.809940
572.038884 -579.201462 159.225551
570.646834 -577.826884 159.641162
569.254784 -576.452307 160.056773
567.862733 -575.077729 160.472383
566.470683 -573.703151 160.887994
565.078633 -572.328574 161.303605
563.686582 -570.953996 161.719216
562.294532 -569.579419 162.134827
560.902481 -568.204841 162.550437
559.510431 -566.830264 162.966048
558.118381 -565.455686 163.381659
556.726330 -564.081108 163.797270
555.334280 -562.706531 164.212880
553.942230 -561.331953 164.628491
552.550179 -559.957376 165.044102
551.158129 -558.582798 165.459713
549.766079 -557.208221 165.875324
548.374028 -555.833643 166.290934
546.981978 -554.459066 166.706545
545.589928 -553.084488 167.122156
544.197877 -551.709910 167.537767
542.805827 -550.335333 167.953377
541.413776 -548.960755 168.368988
540.021726 -547.586178 168.784599
538.629676 -546.211600 169.200210
537.237625 -544.837023 169.615821
535.845575 -543.462445 170.031431
534.453525 -542.087868 170.447042
533.061474 -540.713290 170.862653
531.669424 -539.338712 171.278264
530.277374 -537.964135 171.693875
528.885323 -536.589557 172.109485
527.493273 -535.214980 172.525096
526.101222 -533.840402 172.940707
524.709172 -532.465825 173.356318
523.317122 -531.091247 173.771928
521.925071 -529.716670 174.187539
520.533021 -528.342092 174.603150
519.140971 -526.967514 175.018761
517.748920 -525.592937 175.434372
516.356870 -524.218359 175.849982
514.964820 -522.843782 176.265593
513.572769 -521.469204 176.681204
512.180719 -520.094627 177.096815
510.788668 -518.720049 177.512425
509.396618 -517.345471 177.928036
508.004568 -515.970894 178.343647
506.612517 -514.596316 178.759258
505.220467 -513.221739 179.174869
503.828417 -511.847161 179.590479
502.436366 -510.472584 180.006090
501.044316 -509.098006 180.421701
499.652266 -507.723429 180.837312
498.260215 -506.348851 181.252922
496.868165 -504.974273 181.668533
495.476114 -503.599696 182.084144
494.084064 -502.225118 182.499755
492.692014 -500.850541 182.915366
491.299963 -499.475963 183.330976
489.907913 -498.101386 183.746587
488.515863 -496.726808 184.162198
487.123812 -495.352231 184.577809
485.731762 -493.977653 184.993419
484.339712 -492.603075 185.409030
482.947661 -491.228498 185.824641
481.555611 -489.853920 186.240252
480.163560 -488.479343 186.655863
478.771510 -487.104765 187.071473
477.379460 -485.730188 187.487084
475.987409 -484.355610 187.902695
474.595359 -482.981032 188.318306
473.203309 -481.606455 188.733916
471.811258 -480.231877 189.149527
470.419208 -478.857300 189.565138
469.027158 -477.482722 189.980749
467.635107 -476.108145 190.396360
466.243057 -474.733567 190.811970
464.851006 -473.358990 191.227581
463.458956 -471.984412 191.643192
462.066906 -470.609834 192.058803
460.000000 -468.568872 192.675898
458.380397 -469.735800 192.799047
456.760794 -470.902728 192.922195
455.141191 -472.069656 193.045344
453.521588 -473.236584 193.168492
451.901985 -474.403512 193.291641
450.282382 -475.570440 193.414789
448.662779 -476.737367 193.537937
447.043176 -477.904295 193.661086
445.423573 -479.071223 193.784234
443.803970 -480.238151 193.907383
442.184367 -481.405079 194.030531
440.564765 -482.572007 194.153680
438.945162 -483.738935 194.276828
437.325559 -484.905863 194.399976
435.705956 -486.072791 194.523125
434.086353 -487.239719 194.646273
432.466750 -488.406646 194.769422
430.847147 -489.573574 194.892570
429.227544 -490.740502 195.015719
427.607941 -491.907430 195.138867
425.988338 -493.074358 195.262015
424.368735 -494.241286 195.385164
422.749132 -495.408214 195.508312
421.129529 -496.575142 195.631461
419.509926 -497.742070 195.754609
417.890323 -498.908998 195.877758
416.270720 -500.075925 196.000906
414.651117 -501.242853 196.124054
413.031514 -502.409781 196.247203
411.411911 -503.576709 196.370351
409.792308 -504.743637 196.493500
408.172705 -505.910565 196.616648
406.553102 -507.077493 196.739797
404.933499 -508.244421 196.862945
403.313897 -509.411349 196.986093
401.694294 -510.578277 197.109242
400.074691 -511.745204 197.232390
398.455088 -512.912132 197.355539
396.835485 -514.079060 197.478687
395.215882 -515.245988 197.601836
393.596279 -516.412916 197.724984
391.976676 -517.579844 197.848132
390.357073 -518.746772 197.971281
388.737470 -519.913700 198.094429
387.117867 -521.080628 198.217578
385.498264 -522.247556 198.340726
383.878661 -523.414484 198.463875
382.259058 -524.581411 198.587023
380.639455 -525.748339 198.710171
379.019852 -526.915267 198.833320
377.400249 -528.082195 198.956468
375.780646 -529.249123 199.079617
374.161043 -530.416051 199.202765
372.541440 -531.582979 199.325914
370.921837 -532.749907 199.449062
369.302234 -533.916835 199.572210
367.682631 -535.083763 199.695359
366.063029 -536.250690 199.818507
364.443426 -537.417618 199.941656
362.823823 -538.584546 200.064804
361.204220 -539.751474 200.187953
359.584617 -540.918402 200.311101
357.965014 -542.085330 200.434249
356.345411 -543.252258 200.557398
354.725808 -544.419186 200.680546
353.106205 -545.586114 200.803695
351.486602 -546.753042 200.926843
349.866999 -547.919969 201.049992
348.247396 -549.086897 201.173140
346.627793 -550.253825 201.296288
345.008190 -551.420753 201.419437
343.388587 -552.587681 201.542585
341.768984 -553.754609 201.665734
340.149381 -554.921537 201.788882
338.529778 -556.088465 201.912031
336.910175 -557.255393 202.035179
335.290572 -558.422321 202.158327
333.670969 -559.589248 202.281476
332.051366 -560.756176 202.404624
330.431763 -561.923104 202.527773
328.812161 -563.090032 202.650921
327.192558 -564.256960 202.774070
325.572955 -565.423888 202.897218
323.953352 -566.590816 203.020366
322.333749 -567.757744 203.143515
320.714146 -568.924672 203.266663
319.094543 -570.091600 203.389812
317.474940 -571.258527 203.512960
315.855337 -572.425455 203.636109
314.235734 -573.592383 203.759257
312.616131 -574.759311 203.882405
310.996528 -575.926239 204.005554
309.376925 -577.093167 204.128702
307.757322 -578.260095 204.251851
306.137719 -579.427023 204.374999
304.518116 -580.593951 204.498148
302.898513 -581.760879 204.621296
301.278910 -582.927806 204.744444
299.659307 -584.094734 204.867593
298.039704 -585.261662 204.990741
296.420101 -586.428590 205.113890
294.800498 -587.595518 205.237038
293.180895 -588.762446 205.360187
291.561292 -589.929374 205.483335
289.941690 -591.096302 205.606483
288.322087 -592.263230 205.729632
286.702484 -593.430158 205.852780
285.082881 -594.597085 205.975929
283.463278 -595.764013 206.099077
281.843675 -596.930941 206.222226
280.224072 -598.097869 206.345374
278.604469 -599.264797 206.468522
276.984866 -600.431725 206.591671
275.365263 -601.598653 206.714819
273.745660 -602.765581 206.837968
272.126057 -603.932509 206.961116
270.506454 -605.099437 207.084265
268.886851 -606.266365 207.207413
267.267248 -607.433292 207.330561
265.647645 -608.600220 207.453710
264.028042 -609.767148 207.576858
262.408439 -610.934076 207.700007
260.788836 -612.101004 207.823155
259.169233 -613.267932 207.946304
257.549630 -614.434860 208.069452
255.930027 -615.601788 208.192600
254.310424 -616.768716 208.315749
252.690822 -617.935644 208.438897
251.071219 -619.102571 208.562046
249.451616 -620.269499 208.685194
247.832013 -621.436427 208.808343
246.212410 -622.603355 208.931491
244.592807 -623.770283 209.054640
242.973204 -624.937211 209.177788
241.353601 -626.104139 209.300936
239.733998 -627.271067 209.424085
238.114395 -628.437995 209.547233
236.494792 -629.604923 209.670382
234.875189 -630.771850 209.793530
233.255586 -631.938778 209.916679
231.635983 -633.105706 210.039827
230.016380 -634.272634 210.162975
228.396777 -635.439562 210.286124
226.777174 -636.606490 210.409272
225.157571 -637.773418 210.532421
223.537968 -638.940346 210.655569
221.918365 -640.107274 210.778718
220.298762 -641.274202 210.901866
218.679159 -642.441129 211.025014
217.059556 -643.608057 211.148163
215.439954 -644.774985 211.271311
213.820351 -645.941913 211.394460
212.200748 -647.108841 211.517608
210.581145 -648.275769 211.640757
208.961542 -649.442697 211.763905
207.341939 -650.609625 211.887053
205.722336 -651.776553 212.010202
204.102733 -652.943481 212.133350
202.483130 -654.110408 212.256499
200.863527 -655.277336 212.379647
199.243924 -656.444264 212.502796
197.624321 -657.611192 212.625944
196.004718 -658.778120 212.749092
194.385115 -659.945048 212.872241
192.765512 -661.111976 212.995389
191.145909 -662.278904 213.118538
189.526306 -663.445832 213.241686
187.906703 -664.612760 213.364835
186.287100 -665.779687 213.487983
184.667497 -666.946615 213.611131
183.047894 -668.113543 213.734280
181.428291 -669.280471 213.857428
179.808688 -670.447399 213.980577
178.189086 -671.614327 214.103725
176.569483 -672.781255 214.226874
174.949880 -673.948183 214.350022
173.330277 -675.115111 214.473170
171.710674 -676.282039 214.596319
170.091071 -677.448966 214.719467
168.471468 -678.615894 214.842616
166.851865 -679.782822 214.965764
165.232262 -680.949750 215.088913
163.612659 -682.116678 215.212061
161.993056 -683.283606 215.335209
160.373453 -684.450534 215.458358
158.753850 -685.617462 215.581506
157.134247 -686.784390 215.704655
155.514644 -687.951318 215.827803
153.895041 -689.118246 215.950952
152.275438 -690.285173 216.074100
150.655835 -691.452101 216.197248
149.036232 -692.619029 216.320397
147.416629 -693.785957 216.443545
145.797026 -694.952885 216.566694
144.177423 -696.119813 216.689842
142.557820 -697.286741 216.812991
140.938218 -698.453669 216.936139
139.318615 -699.620597 217.059287
137.699012 -700.787525 217.182436
136.079409 -701.954452 217.305584
134.459806 -703.121380 217.428733
132.840203 -704.288308 217.551881
131.220600 -705.455236 217.675030
129.600997 -706.622164 217.798178
127.981394 -707.789092 217.921326
126.361791 -708.956020 218.044475
124.742188 -710.122948 218.167623
123.122585 -711.289876 218.290772
121.502982 -712.456804 218.413920
119.883379 -713.623731 218.537069
118.263776 -714.790659 218.660217
116.644173 -715.957587 218.783365
115.024570 -717.124515 218.906514
113.404967 -718.291443 219.029662
111.785364 -719.458371 219.152811
110.165761 -720.625299 219.275959
108.546158 -721.792227 219.399108
106.926555 -722.959155 219.522256
105.306952 -724.126083 219.645404
103.687350 -725.293010 219.768553
102.067747 -726.459938 219.891701
100.448144 -727.626866 220.014850
98.828541 -728.793794 220.137998
97.208938 -729.960722 220.261147
95.589335 -731.127650 220.384295
93.969732 -732.294578 220.507443
92.350129 -733.461506 220.630592
90.730526 -734.628434 220.753740
89.110923 -735.795362 220.876889
87.491320 -736.962289 221.000037
85.871717 -738.129217 221.123186
84.252114 -739.296145 221.246334
82.632511 -740.463073 221.369482
81.012908 -741.630001 221.492631
79.393305 -742.796929 221.615779
77.773702 -743.963857 221.738928
76.154099 -745.130785 221.862076
74.534496 -746.297713 221.985225
72.914893 -747.464641 222.108373
71.295290 -748.631568 222.231521
69.675687 -749.798496 222.354670
68.056084 -750.965424 222.477818
66.436482 -752.132352 222.600967
64.816879 -753.299280 222.724115
63.197276 -754.466208 222.847264
61.577673 -755.633136 222.970412
59.958070 -756.800064 223.093560
58.338467 -757.966992 223.216709
56.718864 -759.133920 223.339857
55.099261 -760.300847 223.463006
53.479658 -761.467775 223.586154
51.860055 -762.634703 223.709303
50.240452 -763.801631 223.832451
48.620849 -764.968559 223.955599
47.001246 -766.135487 224.078748
45.381643 -767.302415 224.201896
43.762040 -768.469343 224.325045
42.142437 -769.636271 224.448193
40.522834 -770.803199 224.571342
38.903231 -771.970126 224.694490
37.283628 -773.137054 224.817638
35.664025 -774.303982 224.940787
34.044422 -775.470910 225.063935
32.424819 -776.637838 225.187084
30.805216 -777.804766 225.310232
29.185614 -778.971694 225.433381
27.566011 -780.138622 225.556529
25.946408 -781.305550 225.679677
24.326805 -782.472478 225.802826
22.707202 -783.639406 225.925974
21.087599 -784.806333 226.049123
19.467996 -785.973261 226.172271
17.848393 -787.140189 226.295420
16.228790 -788.307117 226.418568
14.609187 -789.474045 226.541716
12.989584 -790.640973 226.664865
11.369981 -791.807901 226.788013
9.750378 -792.974829 226.911162
8.130775 -794.141757 227.034310
6.511172 -795.308685 227.157459
4.891569 -796.475612 227.280607
3.271966 -797.642540 227.403755
1.652363 -798.809468 227.526904
0.000000 -800.000000 227.652543
-0.016252 -800.078009 225.654131
-0.032504 -800.156018 223.655719
-0.048756 -800.234027 221.657307
-0.065007 -800.312035 219.658895
-0.081259 -800.390044 217.660483
-0.097511 -800.468053 215.662071
-0.113763 -800.546062 213.663659
-0.130015 -800.624071 211.665247
-0.146267 -800.702080 209.666835
-0.162518 -800.780088 207.668423
-0.178770 -800.858097 205.670011
-0.195022 -800.936106 203.671599
-0.211274 -801.014115 201.673187
-0.227526 -801.092124 199.674775
-0.243778 -801.170133 197.676363
-0.260029 -801.248142 195.677951
-0.276281 -801.326150 193.679539
-0.292533 -801.404159 191.681127
-0.308785 -801.482168 189.682715
-0.325037 -801.560177 187.684303
-0.341289 -801.638186 185.685891
-0.357541 -801.716195 183.687479
-0.373792 -801.794203 181.689067
-0.390044 -801.872212 179.690655
-0.406296 -801.950221 177.692243
-0.422548 -802.028230 175.693831
-0.438800 -802.106239 173.695419
-0.455052 -802.184248 171.697007
-0.471303 -802.262257 169.698595
-0.487555 -802.340265 167.700183
-0.503807 -802.418274 165.701771
-0.520059 -802.496283 163.703359
-0.536311 -802.574292 161.704947
-0.552563 -802.652301 159.706535
-0.568815 -802.730310 157.708123
-0.585066 -802.808318 155.709711
-0.601318 -802.886327 153.711299
-0.617570 -802.964336 151.712887
-0.633822 -803.042345 149.714475
-0.650074 -803.120354 147.716064
-0.666326 -803.198363 145.717652
-0.682577 -803.276372 143.719240
-0.698829 -803.354380 141.720828
-0.715081 -803.432389 139.722416
-0.731333 -803.510398 137.724004
-0.747585 -803.588407 135.725592
-0.763837 -803.666416 133.727180
-0.780088 -803.744425 131.728768
-0.796340 -803.822433 129.730356
-0.812592 -803.900442 127.731944
-0.828844 -803.978451 125.733532
-0.845096 -804.056460 123.735120
-0.861348 -804.134469 121.736708
-0.877600 -804.212478 119.738296
-0.893851 -804.290487 117.739884
-0.910103 -804.368495 115.741472
-0.926355 -804.446504 113.743060
-0.942607 -804.524513 111.744648
-0.958859 -804.602522 109.746236
-0.975111 -804.680531 107.747824
-0.991362 -804.758540 105.749412
-1.007614 -804.836548 103.751000
-1.023866 -804.914557 101.752588
-1.040118 -804.992566 99.754176
-1.056370 -805.070575 97.755764
-1.072622 -805.148584 95.757352
-1.088873 -805.226593 93.758940
-1.105125 -805.304602 91.760528
