-881.789816 -4.933277 460.000000
-883.782568 -5.103390 460.000000
-885.775320 -5.273503 460.000000
-887.768072 -5.443616 460.000000
-889.760825 -5.613729 460.000000
-891.753577 -5.783842 460.000000
-893.746329 -5.953955 460.000000
-895.739081 -6.124068 460.000000
-897.731834 -6.294181 460.000000
-899.724586 -6.464294 460.000000
-901.717338 -6.634407 460.000000
-903.710090 -6.804520 460.000000
-905.702843 -6.974633 460.000000
-907.695595 -7.144746 460.000000
-909.688347 -7.314859 460.000000
-911.681099 -7.484972 460.000000
-913.673852 -7.655085 460.000000
-915.666604 -7.825198 460.000000
-917.659356 -7.995311 460.000000
-919.652108 -8.165424 460.000000
-921.644861 -8.335537 460.000000
-923.637613 -8.505650 460.000000
-925.630365 -8.675763 460.000000
-927.623117 -8.845876 460.000000
-929.615870 -9.015989 460.000000
-931.608622 -9.186102 460.000000
-933.601374 -9.356215 460.000000
-935.594127 -9.526328 460.000000
-937.586879 -9.696441 460.000000
-939.579631 -9.866554 460.000000
-941.572383 -10.036667 460.000000
-943.565136 -10.206780 460.000000
-945.557888 -10.376893 460.000000
-947.550640 -10.547006 460.000000
-949.543392 -10.717119 460.000000
-951.536145 -10.887232 460.000000
-953.528897 -11.057345 460.000000
-955.521649 -11.227458 460.000000
-957.514401 -11.397571 460.000000
-959.507154 -11.567684 460.000000
-961.499906 -11.737797 460.000000
-963.492658 -11.907910 460.000000
-965.485410 -12.078023 460.000000
-967.478163 -12.248136 460.000000
-969.470915 -12.418249 460.000000
-971.463667 -12.588362 460.000000
-973.456419 -12.758475 460.000000
-975.449172 -12.928588 460.000000
-977.441924 -13.098701 460.000000
-979.434676 -13.268814 460.000000
-981.427429 -13.438927 460.000000
-983.420181 -13.609040 460.000000
-985.412933 -13.779153 460.000000
-988.000000 -14.000000 460.000000
-988.000000 -14.553743 461.921814
-988.000000 -15.107486 463.843628
-988.000000 -15.661229 465.765442
-988.000000 -16.214972 467.687256
-988.000000 -16.768715 469.609070
-988.000000 -17.322458 471.530883
-988.000000 -17.876201 473.452697
-988.000000 -18.429944 475.374511
-988.000000 -18.983687 477.296325
-988.000000 -19.537430 479.218139
-988.000000 -20.091173 481.139953
-988.000000 -20.644916 483.061767
-988.000000 -21.198659 484.983581
-988.000000 -21.752402 486.905395
-988.000000 -22.306145 488.827209
-988.000000 -22.859888 490.749023
-988.000000 -23.413631 492.670836
-988.000000 -23.967374 494.592650
-988.000000 -24.521117 496.514464
-988.000000 -25.074860 498.436278
-988.000000 -25.628603 500.358092
-988.000000 -26.182346 502.279906
-988.000000 -26.736089 504.201720
-988.000000 -27.289832 506.123534
-988.000000 -27.843575 508.045348
-988.000000 -28.397318 509.967162
-988.000000 -28.951061 511.888976
-988.000000 -29.504804 513.810789
-988.000000 -30.058547 515.732603
-988.000000 -30.612290 517.654417
-988.000000 -31.166033 519.576231
-988.000000 -31.719776 521.498045
-988.000000 -32.273519 523.419859
-988.000000 -32.827262 525.341673
-988.000000 -33.381005 527.263487
-988.000000 -33.934748 529.185301
-988.000000 -34.488491 531.107115
-988.000000 -35.042234 533.028929
-988.000000 -35.595977 534.950742
-988.000000 -36.149720 536.872556
-988.000000 -36.703463 538.794370
-988.000000 -37.257206 540.716184
-988.000000 -37.810949 542.637998
-988.000000 -38.364692 544.559812
-988.000000 -38.918435 546.481626
-988.000000 -39.472178 548.403440
-988.000000 -40.025921 550.325254
-988.000000 -40.579664 552.247068
-988.000000 -41.133407 554.168882
-988.000000 -41.687150 556.090695
-988.000000 -42.240893 558.012509
-988.000000 -42.794636 559.934323
-988.000000 -43.348379 561.856137
-988.000000 -43.902121 563.777951
-988.000000 -44.455864 565.699765
-988.000000 -45.009607 567.621579
-988.000000 -45.563350 569.543393
-988.000000 -46.117093 571.465207
-988.000000 -46.670836 573.387021
-988.000000 -47.224579 575.308835
-988.000000 -47.778322 577.230648
-988.000000 -48.332065 579.152462
-988.000000 -48.885808 581.074276
-988.000000 -49.439551 582.996090
-988.000000 -49.993294 584.917904
-988.000000 -50.547037 586.839718
-988.000000 -51.100780 588.761532
-988.000000 -51.654523 590.683346
-988.000000 -52.208266 592.605160
-988.000000 -52.762009 594.526974
-988.000000 -53.315752 596.448788
-988.000000 -53.869495 598.370601
-988.000000 -54.423238 600.292415
-988.000000 -54.976981 602.214229
-988.000000 -55.530724 604.136043
-988.000000 -56.084467 606.057857
-988.000000 -56.638210 607.979671
-988.000000 -57.191953 609.901485
-988.000000 -57.745696 611.823299
-988.000000 -58.299439 613.745113
-988.000000 -58.853182 615.666927
-988.000000 -59.406925 617.588741
-988.000000 -59.960668 619.510554
-988.000000 -60.514411 621.432368
-988.000000 -61.068154 623.354182
-988.000000 -61.621897 625.275996
-988.000000 -62.175640 627.197810
-988.000000 -62.729383 629.119624
-988.000000 -63.283126 631.041438
-988.000000 -63.836869 632.963252
-988.000000 -64.390612 634.885066
-988.000000 -64.944355 636.806880
-988.000000 -65.498098 638.728694
-988.000000 -66.051841 640.650507
-988.000000 -66.605584 642.572321
-988.000000 -67.159327 644.494135
-988.000000 -67.713070 646.415949
-988.000000 -68.266813 648.337763
-988.000000 -68.820556 650.259577
-988.000000 -69.374299 652.181391
-988.000000 -69.928042 654.103205
-988.000000 -70.481785 656.025019
-988.000000 -71.035528 657.946833
-988.000000 -71.589271 659.868647
-988.000000 -72.143014 661.790460
-988.000000 -72.696757 663.712274
-988.000000 -73.250500 665.634088
-988.000000 -73.804243 667.555902
-988.000000 -74.357986 669.477716
-988.000000 -74.911729 671.399530
-988.000000 -75.465472 673.321344
-988.000000 -76.019215 675.243158
-988.000000 -76.572958 677.164972
-988.000000 -77.126701 679.086786
-988.000000 -77.680444 681.008600
-988.000000 -78.234187 682.930413
-988.000000 -78.787930 684.852227
-988.000000 -79.341673 686.774041
-988.000000 -79.895416 688.695855
-988.000000 -80.449159 690.617669
-988.000000 -81.002902 692.539483
-988.000000 -82.000000 696.000000
-987.936033 -83.998977 696.000000
-987.872065 -85.997954 696.000000
-987.808098 -87.996930 696.000000
-987.744131 -89.995907 696.000000
-987.680164 -91.994884 696.000000
-987.616196 -93.993861 696.000000
-987.552229 -95.992838 696.000000
-987.488262 -97.991814 696.000000
-987.424295 -99.990791 696.000000
-987.360327 -101.989768 696.000000
-987.296360 -103.988745 696.000000
-987.232393 -105.987721 696.000000
-987.168426 -107.986698 696.000000
-987.104458 -109.985675 696.000000
-987.040491 -111.984652 696.000000
-986.976524 -113.983629 696.000000
-986.912557 -115.982605 696.000000
-986.848589 -117.981582 696.000000
-986.784622 -119.980559 696.000000
-986.720655 -121.979536 696.000000
-986.656688 -123.978513 696.000000
-986.592720 -125.977489 696.000000
-986.528753 -127.976466 696.000000
-986.464786 -129.975443 696.000000
-986.400819 -131.974420 696.000000
-986.336851 -133.973396 696.000000
-986.272884 -135.972373 696.000000
-986.208917 -137.971350 696.000000
-986.144950 -139.970327 696.000000
-986.080982 -141.969304 696.000000
-986.017015 -143.968280 696.000000
-985.953048 -145.967257 696.000000
-985.889081 -147.966234 696.000000
-985.825113 -149.965211 696.000000
-985.761146 -151.964188 696.000000
-985.697179 -153.963164 696.000000
-985.633211 -155.962141 696.000000
-985.569244 -157.961118 696.000000
-985.505277 -159.960095 696.000000
-985.441310 -161.959071 696.000000
-985.377342 -163.958048 696.000000
-985.313375 -165.957025 696.000000
-985.249408 -167.956002 696.000000
-985.185441 -169.954979 696.000000
-985.121473 -171.953955 696.000000
-985.057506 -173.952932 696.000000
-984.993539 -175.951909 696.000000
-984.929572 -177.950886 696.000000
-984.865604 -179.949863 696.000000
-984.801637 -181.948839 696.000000
-984.737670 -183.947816 696.000000
-984.673703 -185.946793 696.000000
-984.609735 -187.945770 696.000000
-984.545768 -189.944746 696.000000
-984.481801 -191.943723 696.000000
-984.417834 -193.942700 696.000000
-984.353866 -195.941677 696.000000
-984.289899 -197.940654 696.000000
-984.225932 -199.939630 696.000000
-984.161965 -201.938607 696.000000
-984.097997 -203.937584 696.000000
-984.034030 -205.936561 696.000000
-983.970063 -207.935538 696.000000
-983.906096 -209.934514 696.000000
-983.842128 -211.933491 696.000000
-983.778161 -213.932468 696.000000
-983.714194 -215.931445 696.000000
-983.650227 -217.930421 696.000000
-983.586259 -219.929398 696.000000
-983.522292 -221.928375 696.000000
-983.458325 -223.927352 696.000000
-983.394357 -225.926329 696.000000
-983.330390 -227.925305 696.000000
-983.266423 -229.924282 696.000000
-983.202456 -231.923259 696.000000
-983.138488 -233.922236 696.000000
-983.074521 -235.921213 696.000000
-983.010554 -237.920189 696.000000
-982.946587 -239.919166 696.000000
-982.882619 -241.918143 696.000000
-982.818652 -243.917120 696.000000
-982.754685 -245.916096 696.000000
-982.690718 -247.915073 696.000000
-982.626750 -249.914050 696.000000
-982.562783 -251.913027 696.000000
-982.498816 -253.912004 696.000000
-982.434849 -255.910980 696.000000
-982.370881 -257.909957 696.000000
-982.306914 -259.908934 696.000000
-982.242947 -261.907911 696.000000
-982.178980 -263.906888 696.000000
-982.115012 -265.905864 696.000000
-982.051045 -267.904841 696.000000
-981.987078 -269.903818 696.000000
-981.923111 -271.902795 696.000000
-981.859143 -273.901771 696.000000
-981.795176 -275.900748 696.000000
-981.731209 -277.899725 696.000000
-981.667242 -279.898702 696.000000
-981.603274 -281.897679 696.000000
-981.539307 -283.896655 696.000000
-981.475340 -285.895632 696.000000
-981.411373 -287.894609 696.000000
-981.347405 -289.893586 696.000000
-981.283438 -291.892563 696.000000
-981.219471 -293.891539 696.000000
-981.155503 -295.890516 696.000000
-981.091536 -297.889493 696.000000
-981.027569 -299.888470 696.000000
-980.963602 -301.887446 696.000000
-980.899634 -303.886423 696.000000
-980.835667 -305.885400 696.000000
-980.771700 -307.884377 696.000000
-980.707733 -309.883354 696.000000
-980.643765 -311.882330 696.000000
-980.579798 -313.881307 696.000000
-980.515831 -315.880284 696.000000
-980.451864 -317.879261 696.000000
-980.387896 -319.878238 696.000000
-980.323929 -321.877214 696.000000
-980.259962 -323.876191 696.000000
-980.195995 -325.875168 696.000000
-980.132027 -327.874145 696.000000
-980.068060 -329.873121 696.000000
-980.000000 -332.000000 696.000000
-979.671494 -333.971036 695.915728
-979.342988 -335.942072 695.831456
-979.014482 -337.913107 695.747184
-978.685976 -339.884143 695.662912
-978.357470 -341.855179 695.578640
-978.028964 -343.826215 695.494368
-977.700458 -345.797250 695.410096
-977.371952 -347.768286 695.325824
-977.043446 -349.739322 695.241552
-976.714940 -351.710358 695.157280
-976.386434 -353.681394 695.073008
-976.057928 -355.652429 694.988736
-975.729422 -357.623465 694.904464
-975.400917 -359.594501 694.820193
-975.072411 -361.565537 694.735921
-974.743905 -363.536573 694.651649
-974.415399 -365.507608 694.567377
-974.086893 -367.478644 694.483105
-973.758387 -369.449680 694.398833
-973.429881 -371.420716 694.314561
-973.101375 -373.391751 694.230289
-972.772869 -375.362787 694.146017
-972.444363 -377.333823 694.061745
-972.115857 -379.304859 693.977473
-971.787351 -381.275895 693.893201
-971.458845 -383.246930 693.808929
-971.130339 -385.217966 693.724657
-970.801833 -387.189002 693.640385
-970.473327 -389.160038 693.556113
-970.144821 -391.131074 693.471841
-969.816315 -393.102109 693.387569
-969.487809 -395.073145 693.303297
-969.159303 -397.044181 693.219025
-968.830797 -399.015217 693.134753
-968.502291 -400.986252 693.050481
-968.173785 -402.957288 692.966209
-967.845279 -404.928324 692.881937
-967.516773 -406.899360 692.797665
-967.188267 -408.870396 692.713393
-966.859761 -410.841431 692.629122
-966.531255 -412.812467 692.544850
-966.202750 -414.783503 692.460578
-965.874244 -416.754539 692.376306
-965.545738 -418.725575 692.292034
-965.217232 -420.696610 692.207762
-964.888726 -422.667646 692.123490
-964.560220 -424.638682 692.039218
-964.231714 -426.609718 691.954946
-963.903208 -428.580753 691.870674
-963.574702 -430.551789 691.786402
-963.246196 -432.522825 691.702130
-962.917690 -434.493861 691.617858
-962.589184 -436.464897 691.533586
-962.260678 -438.435932 691.449314
-961.932172 -440.406968 691.365042
-961.603666 -442.378004 691.280770
-961.275160 -444.349040 691.196498
-960.946654 -446.320076 691.112226
-960.618148 -448.291111 691.027954
-960.289642 -450.262147 690.943682
-959.961136 -452.233183 690.859410
-959.632630 -454.204219 690.775138
-959.304124 -456.175254 690.690866
-958.975618 -458.146290 690.606594
-958.647112 -460.117326 690.522322
-958.318606 -462.088362 690.438051
-957.990100 -464.059398 690.353779
-957.661594 -466.030433 690.269507
-957.333088 -468.001469 690.185235
-957.004583 -469.972505 690.100963
-956.676077 -471.943541 690.016691
-956.347571 -473.914577 689.932419
-956.019065 -475.885612 689.848147
-955.690559 -477.856648 689.763875
-955.362053 -479.827684 689.679603
-955.033547 -481.798720 689.595331
-954.705041 -483.769755 689.511059
-954.376535 -485.740791 689.426787
-954.048029 -487.711827 689.342515
-953.719523 -489.682863 689.258243
-953.391017 -491.653899 689.173971
-953.062511 -493.624934 689.089699
-952.734005 -495.595970 689.005427
-952.405499 -497.567006 688.921155
-952.076993 -499.538042 688.836883
-951.748487 -501.509078 688.752611
-951.419981 -503.480113 688.668339
-951.091475 -505.451149 688.584067
-950.762969 -507.422185 688.499795
-950.434463 -509.393221 688.415523
-950.105957 -511.364256 688.331251
-949.777451 -513.335292 688.246980
-949.448945 -515.306328 688.162708
-949.120439 -517.277364 688.078436
-948.791933 -519.248400 687.994164
-948.463427 -521.219435 687.909892
-948.134921 -523.190471 687.825620
-947.806416 -525.161507 687.741348
-947.477910 -527.132543 687.657076
-947.149404 -529.103579 687.572804
-946.820898 -531.074614 687.488532
-946.492392 -533.045650 687.404260
-946.163886 -535.016686 687.319988
-945.835380 -536.987722 687.235716
-945.506874 -538.958757 687.151444
-945.178368 -540.929793 687.067172
-944.849862 -542.900829 686.982900
-944.521356 -544.871865 686.898628
-944.192850 -546.842901 686.814356
-943.864344 -548.813936 686.730084
-943.535838 -550.784972 686.645812
-943.207332 -552.756008 686.561540
-942.878826 -554.727044 686.477268
-942.550320 -556.698080 686.392996
-942.221814 -558.669115 686.308724
-941.893308 -560.640151 686.224452
-941.564802 -562.611187 686.140180
-941.236296 -564.582223 686.055909
-940.907790 -566.553258 685.971637
-940.579284 -568.524294 685.887365
-940.250778 -570.495330 685.803093
-939.922272 -572.466366 685.718821
-939.593766 -574.437402 685.634549
-939.265260 -576.408437 685.550277
-938.936754 -578.379473 685.466005
-938.608249 -580.350509 685.381733
-938.279743 -582.321545 685.297461
-937.951237 -584.292581 685.213189
-937.622731 -586.263616 685.128917
-937.294225 -588.234652 685.044645
-936.965719 -590.205688 684.960373
-936.637213 -592.176724 684.876101
-936.308707 -594.147759 684.791829
-935.980201 -596.118795 684.707557
-935.651695 -598.089831 684.623285
-935.323189 -600.060867 684.539013
-934.994683 -602.031903 684.454741
-934.666177 -604.002938 684.370469
-934.337671 -605.973974 684.286197
-934.009165 -607.945010 684.201925
-933.680659 -609.916046 684.117653
-933.352153 -611.887082 684.033381
-933.023647 -613.858117 683.949109
-932.695141 -615.829153 683.864838
-932.366635 -617.800189 683.780566
-932.038129 -619.771225 683.696294
-931.709623 -621.742260 683.612022
-931.381117 -623.713296 683.527750
-931.052611 -625.684332 683.443478
-930.724105 -627.655368 683.359206
-930.395599 -629.626404 683.274934
-930.067093 -631.597439 683.190662
-929.738587 -633.568475 683.106390
-929.410082 -635.539511 683.022118
-929.081576 -637.510547 682.937846
-928.753070 -639.481583 682.853574
-928.424564 -641.452618 682.769302
-928.096058 -643.423654 682.685030
-927.767552 -645.394690 682.600758
-927.439046 -647.365726 682.516486
-927.110540 -649.336761 682.432214
-926.782034 -651.307797 682.347942
-926.453528 -653.278833 682.263670
-926.125022 -655.249869 682.179398
-925.796516 -657.220905 682.095126
-925.468010 -659.191940 682.010854
-925.139504 -661.162976 681.926582
-924.810998 -663.134012 681.842310
-924.482492 -665.105048 681.758038
-924.153986 -667.076084 681.673767
-923.825480 -669.047119 681.589495
-923.496974 -671.018155 681.505223
-923.168468 -672.989191 681.420951
-922.839962 -674.960227 681.336679
-922.511456 -676.931262 681.252407
-922.182950 -678.902298 681.168135
-921.854444 -680.873334 681.083863
-921.525938 -682.844370 680.999591
-921.197432 -684.815406 680.915319
-920.868926 -686.786441 680.831047
-920.540420 -688.757477 680.746775
-920.211915 -690.728513 680.662503
-919.883409 -692.699549 680.578231
-919.554903 -694.670585 680.493959
-919.226397 -696.641620 680.409687
-918.897891 -698.612656 680.325415
-918.569385 -700.583692 680.241143
-918.240879 -702.554728 680.156871
-917.912373 -704.525763 680.072599
-917.583867 -706.496799 679.988327
-917.255361 -708.467835 679.904055
-916.926855 -710.438871 679.819783
-916.598349 -712.409907 679.735511
-916.269843 -714.380942 679.651239
-915.941337 -716.351978 679.566967
-915.612831 -718.323014 679.482696
-915.284325 -720.294050 679.398424
-914.955819 -722.265086 679.314152
-914.627313 -724.236121 679.229880
-914.298807 -726.207157 679.145608
-913.970301 -728.178193 679.061336
-913.641795 -730.149229 678.977064
-913.313289 -732.120264 678.892792
-912.984783 -734.091300 678.808520
-912.656277 -736.062336 678.724248
-912.327771 -738.033372 678.639976
-911.999265 -740.004408 678.555704
-911.670759 -741.975443 678.471432
-911.342253 -743.946479 678.387160
-911.013748 -745.917515 678.302888
-910.685242 -747.888551 678.218616
-910.356736 -749.859587 678.134344
-910.028230 -751.830622 678.050072
-909.699724 -753.801658 677.965800
-909.371218 -755.772694 677.881528
-909.042712 -757.743730 677.797256
-908.714206 -759.714765 677.712984
-908.385700 -761.685801 677.628712
-908.057194 -763.656837 677.544440
-907.728688 -765.627873 677.460168
-907.400182 -767.598909 677.375896
-907.071676 -769.569944 677.291625
-906.743170 -771.540980 677.207353
-906.414664 -773.512016 677.123081
-906.000000 -776.000000 677.016706
-906.244981 -777.984939 677.016706
-906.489962 -779.969879 677.016706
-906.734943 -781.954818 677.016706
-906.979924 -783.939757 677.016706
-907.224906 -785.924697 677.016706
-907.469887 -787.909636 677.016706
-907.714868 -789.894576 677.016706
-907.959849 -791.879515 677.016706
-908.204830 -793.864454 677.016706
-908.449811 -795.849394 677.016706
-908.694792 -797.834333 677.016706
-908.939773 -799.819272 677.016706
-909.184755 -801.804212 677.016706
-909.429736 -803.789151 677.016706
-909.674717 -805.774090 677.016706
-909.919698 -807.759030 677.016706
-910.164679 -809.743969 677.016706
-910.409660 -811.728908 677.016706
-910.654641 -813.713848 677.016706
-910.899622 -815.698787 677.016706
-911.144603 -817.683727 677.016706
-911.389585 -819.668666 677.016706
-911.634566 -821.653605 677.016706
-911.879547 -823.638545 677.016706
-912.124528 -825.623484 677.016706
-912.369509 -827.608423 677.016706
-912.614490 -829.593363 677.016706
-912.859471 -831.578302 677.016706
-913.104452 -833.563241 677.016706
-913.349434 -835.548181 677.016706
-913.594415 -837.533120 677.016706
-913.839396 -839.518059 677.016706
-914.084377 -841.502999 677.016706
-914.329358 -843.487938 677.016706
-914.574339 -845.472878 677.016706
-914.819320 -847.457817 677.016706
-915.064301 -849.442756 677.016706
-915.309282 -851.427696 677.016706
-915.554264 -853.412635 677.016706
-915.799245 -855.397574 677.016706
-916.044226 -857.382514 677.016706
-916.289207 -859.367453 677.016706
-916.534188 -861.352392 677.016706
-916.779169 -863.337332 677.016706
-917.024150 -865.322271 677.016706
-917.269131 -867.307210 677.016706
-917.514113 -869.292150 677.016706
-917.759094 -871.277089 677.016706
-918.004075 -873.262029 677.016706
-918.249056 -875.246968 677.016706
-918.494037 -877.231907 677.016706
-918.739018 -879.216847 677.016706
-918.983999 -881.201786 677.016706
-919.228980 -883.186725 677.016706
-919.473961 -885.171665 677.016706
-919.718943 -887.156604 677.016706
-919.963924 -889.141543 677.016706
-920.208905 -891.126483 677.016706
-920.453886 -893.111422 677.016706
-920.698867 -895.096361 677.016706
-920.943848 -897.081301 677.016706
-921.188829 -899.066240 677.016706
-921.433810 -901.051180 677.016706
-921.678792 -903.036119 677.016706
-921.923773 -905.021058 677.016706
-922.168754 -907.005998 677.016706
-922.413735 -908.990937 677.016706
-922.658716 -910.975876 677.016706
-922.903697 -912.960816 677.016706
-923.148678 -914.945755 677.016706
-923.393659 -916.930694 677.016706
-923.638640 -918.915634 677.016706
-923.883622 -920.900573 677.016706
-924.128603 -922.885512 677.016706
-924.373584 -924.870452 677.016706
-924.618565 -926.855391 677.016706
-924.863546 -928.840331 677.016706
-925.108527 -930.825270 677.016706
-925.353508 -932.810209 677.016706
-925.598489 -934.795149 677.016706
-925.843471 -936.780088 677.016706
-926.088452 -938.765027 677.016706
-926.333433 -940.749967 677.016706
-926.578414 -942.734906 677.016706
-926.823395 -944.719845 677.016706
-927.068376 -946.704785 677.016706
-927.313357 -948.689724 677.016706
-927.558338 -950.674663 677.016706
-927.803319 -952.659603 677.016706
-928.048301 -954.644542 677.016706
-928.293282 -956.629482 677.016706
-928.538263 -958.614421 677.016706
-928.783244 -960.599360 677.016706
-929.028225 -962.584300 677.016706
-929.273206 -964.569239 677.016706
-929.518187 -966.554178 677.016706
-929.763168 -968.539118 677.016706
-930.008150 -970.524057 677.016706
-930.253131 -972.508996 677.016706
-930.498112 -974.493936 677.016706
-930.743093 -976.478875 677.016706
-930.988074 -978.463814 677.016706
-931.233055 -980.448754 677.016706
-931.478036 -982.433693 677.016706
-931.723017 -984.418633 677.016706
-931.967998 -986.403572 677.016706
-932.212980 -988.388511 677.016706
-932.457961 -990.373451 677.016706
-932.702942 -992.358390 677.016706
-932.947923 -994.343329 677.016706
-933.192904 -996.328269 677.016706
-933.437885 -998.313208 677.016706
-933.682866 -1000.298147 677.016706
-933.927847 -1002.283087 677.016706
-934.172828 -1004.268026 677.016706
-934.417810 -1006.252965 677.016706
-934.662791 -1008.237905 677.016706
-934.907772 -1010.222844 677.016706
-935.152753 -1012.207784 677.016706
-935.397734 -1014.192723 677.016706
-935.642715 -1016.177662 677.016706
-935.887696 -1018.162602 677.016706
-936.132677 -1020.147541 677.016706
-936.377659 -1022.132480 677.016706
-936.622640 -1024.117420 677.016706
-936.867621 -1026.102359 677.016706
-937.112602 -1028.087298 677.016706
-937.357583 -1030.072238 677.016706
-937.602564 -1032.057177 677.016706
-937.847545 -1034.042116 677.016706
-938.092526 -1036.027056 677.016706
-938.337507 -1038.011995 677.016706
-938.582489 -1039.996935 677.016706
-938.827470 -1041.981874 677.016706
-939.072451 -1043.966813 677.016706
-939.317432 -1045.951753 677.016706
-939.562413 -1047.936692 677.016706
-939.807394 -1049.921631 677.016706
-940.052375 -1051.906571 677.016706
-940.297356 -1053.891510 677.016706
-940.542338 -1055.876449 677.016706
-940.787319 -1057.861389 677.016706
-941.032300 -1059.846328 677.016706
-941.277281 -1061.831267 677.016706
-941.522262 -1063.816207 677.016706
-941.767243 -1065.801146 677.016706
-942.012224 -1067.786086 677.016706
-942.257205 -1069.771025 677.016706
-942.502186 -1071.755964 677.016706
-942.747168 -1073.740904 677.016706
-942.992149 -1075.725843 677.016706
-943.237130 -1077.710782 677.016706
-943.482111 -1079.695722 677.016706
-943.727092 -1081.680661 677.016706
-943.972073 -1083.665600 677.016706
-944.217054 -1085.650540 677.016706
-944.462035 -1087.635479 677.016706
-944.707017 -1089.620418 677.016706
-944.951998 -1091.605358 677.016706
-945.196979 -1093.590297 677.016706
-945.441960 -1095.575237 677.016706
-945.686941 -1097.560176 677.016706
-945.931922 -1099.545115 677.016706
-946.176903 -1101.530055 677.016706
-946.421884 -1103.514994 677.016706
-946.666865 -1105.499933 677.016706
-946.911847 -1107.484873 677.016706
-947.156828 -1109.469812 677.016706
-947.401809 -1111.454751 677.016706
-947.646790 -1113.439691 677.016706
-947.891771 -1115.424630 677.016706
-948.136752 -1117.409569 677.016706
-948.381733 -1119.394509 677.016706
-948.626714 -1121.379448 677.016706
-948.871696 -1123.364388 677.016706
-949.116677 -1125.349327 677.016706
-949.361658 -1127.334266 677.016706
-949.606639 -1129.319206 677.016706
-949.851620 -1131.304145 677.016706
-950.096601 -1133.289084 677.016706
-950.341582 -1135.274024 677.016706
-950.586563 -1137.258963 677.016706
-950.831544 -1139.243902 677.016706
-951.076526 -1141.228842 677.016706
-951.321507 -1143.213781 677.016706
-951.566488 -1145.198720 677.016706
-951.811469 -1147.183660 677.016706
-952.056450 -1149.168599 677.016706
-952.301431 -1151.153539 677.016706
-952.546412 -1153.138478 677.016706
-952.791393 -1155.123417 677.016706
-953.036375 -1157.108357 677.016706
-953.281356 -1159.093296 677.016706
-953.526337 -1161.078235 677.016706
-953.771318 -1163.063175 677.016706
-954.016299 -1165.048114 677.016706
-954.261280 -1167.033053 677.016706
-954.506261 -1169.017993 677.016706
-954.751242 -1171.002932 677.016706
-954.996223 -1172.987871 677.016706
-955.241205 -1174.972811 677.016706
-955.486186 -1176.957750 677.016706
-955.731167 -1178.942690 677.016706
-955.976148 -1180.927629 677.016706
-956.221129 -1182.912568 677.016706
-956.466110 -1184.897508 677.016706
-956.711091 -1186.882447 677.016706
-956.956072 -1188.867386 677.016706
-957.201054 -1190.852326 677.016706
-957.446035 -1192.837265 677.016706
-957.691016 -1194.822204 677.016706
-957.935997 -1196.807144 677.016706
-958.180978 -1198.792083 677.016706
-958.425959 -1200.777022 677.016706
-958.670940 -1202.761962 677.016706
-958.915921 -1204.746901 677.016706
-959.160902 -1206.731841 677.016706
-959.405884 -1208.716780 677.016706
-959.650865 -1210.701719 677.016706
-959.895846 -1212.686659 677.016706
-960.140827 -1214.671598 677.016706
-960.385808 -1216.656537 677.016706
-960.630789 -1218.641477 677.016706
-960.875770 -1220.626416 677.016706
-961.120751 -1222.611355 677.016706
-961.365733 -1224.596295 677.016706
-961.610714 -1226.581234 677.016706
-961.855695 -1228.566173 677.016706
-962.100676 -1230.551113 677.016706
-962.345657 -1232.536052 677.016706
-962.590638 -1234.520992 677.016706
-962.835619 -1236.505931 677.016706
-963.080600 -1238.490870 677.016706
-963.325581 -1240.475810 677.016706
-963.570563 -1242.460749 677.016706
-963.815544 -1244.445688 677.016706
-964.060525 -1246.430628 677.016706
-964.305506 -1248.415567 677.016706
-964.550487 -1250.400506 677.016706
-964.795468 -1252.385446 677.016706
-965.040449 -1254.370385 677.016706
-965.285430 -1256.355324 677.016706
-965.530412 -1258.340264 677.016706
-965.775393 -1260.325203 677.016706
-966.020374 -1262.310143 677.016706
-966.265355 -1264.295082 677.016706
-966.510336 -1266.280021 677.016706
-966.755317 -1268.264961 677.016706
-967.000298 -1270.249900 677.016706
-967.245279 -1272.234839 677.016706
-967.490260 -1274.219779 677.016706
-967.735242 -1276.204718 677.016706
-967.980223 -1278.189657 677.016706
-968.225204 -1280.174597 677.016706
-968.470185 -1282.159536 677.016706
-968.715166 -1284.144475 677.016706
-968.960147 -1286.129415 677.016706
-969.205128 -1288.114354 677.016706
-969.450109 -1290.099294 677.016706
-969.695091 -1292.084233 677.016706
-969.940072 -1294.069172 677.016706
-970.185053 -1296.054112 677.016706
-970.430034 -1298.039051 677.016706
-970.675015 -1300.023990 677.016706
-970.919996 -1302.008930 677.016706
-971.164977 -1303.993869 677.016706
-971.409958 -1305.978808 677.016706
-971.654939 -1307.963748 677.016706
-971.899921 -1309.948687 677.016706
-972.144902 -1311.933626 677.016706
-972.389883 -1313.918566 677.016706
-972.634864 -1315.903505 677.016706
-972.879845 -1317.888445 677.016706
-973.124826 -1319.873384 677.016706
-973.369807 -1321.858323 677.016706
-973.614788 -1323.843263 677.016706
-973.859770 -1325.828202 677.016706
-974.104751 -1327.813141 677.016706
-974.349732 -1329.798081 677.016706
-974.594713 -1331.783020 677.016706
-974.839694 -1333.767959 677.016706
-975.084675 -1335.752899 677.016706
-975.329656 -1337.737838 677.016706
-975.574637 -1339.722777 677.016706
-975.819618 -1341.707717 677.016706
-976.064600 -1343.692656 677.016706
-976.309581 -1345.677596 677.016706
-976.554562 -1347.662535 677.016706
-976.799543 -1349.647474 677.016706
-977.044524 -1351.632414 677.016706
-977.289505 -1353.617353 677.016706
-977.534486 -1355.602292 677.016706
-977.779467 -1357.587232 677.016706
-978.024449 -1359.572171 677.016706
-978.269430 -1361.557110 677.016706
-978.514411 -1363.542050 677.016706
-978.759392 -1365.526989 677.016706
-979.004373 -1367.511928 677.016706
-979.249354 -1369.496868 677.016706
-979.494335 -1371.481807 677.016706
-979.739316 -1373.466747 677.016706
-979.984297 -1375.451686 677.016706
-980.229279 -1377.436625 677.016706
-980.474260 -1379.421565 677.016706
-980.719241 -1381.406504 677.016706
-980.964222 -1383.391443 677.016706
-981.209203 -1385.376383 677.016706
-981.454184 -1387.361322 677.016706
-981.699165 -1389.346261 677.016706
-981.944146 -1391.331201 677.016706
-982.189127 -1393.316140 677.016706
-982.434109 -1395.301079 677.016706
-982.679090 -1397.286019 677.016706
-982.924071 -1399.270958 677.016706
-983.169052 -1401.255898 677.016706
-983.414033 -1403.240837 677.016706
-983.659014 -1405.225776 677.016706
-983.903995 -1407.210716 677.016706
-984.148976 -1409.195655 677.016706
-984.393958 -1411.180594 677.016706
-984.638939 -1413.165534 677.016706
-984.883920 -1415.150473 677.016706
-985.128901 -1417.135412 677.016706
-985.373882 -1419.120352 677.016706
-985.618863 -1421.105291 677.016706
-985.863844 -1423.090230 677.016706
-986.108825 -1425.075170 677.016706
-986.353806 -1427.060109 677.016706
-986.598788 -1429.045049 677.016706
-986.843769 -1431.029988 677.016706
-987.088750 -1433.014927 677.016706
-987.333731 -1434.999867 677.016706
-987.578712 -1436.984806 677.016706
-987.823693 -1438.969745 677.016706
-988.068674 -1440.954685 677.016706
-988.313655 -1442.939624 677.016706
-988.558637 -1444.924563 677.016706
-988.803618 -1446.909503 677.016706
-989.048599 -1448.894442 677.016706
-989.293580 -1450.879381 677.016706
-989.538561 -1452.864321 677.016706
-989.783542 -1454.849260 677.016706
-990.028523 -1456.834200 677.016706
-990.273504 -1458.819139 677.016706
-990.518485 -1460.804078 677.016706
-990.763467 -1462.789018 677.016706
-991.008448 -1464.773957 677.016706
-991.253429 -1466.758896 677.016706
-991.498410 -1468.743836 677.016706
-991.743391 -1470.728775 677.016706
-991.988372 -1472.713714 677.016706
-992.233353 -1474.698654 677.016706
-992.478334 -1476.683593 677.016706
-992.723316 -1478.668532 677.016706
-992.968297 -1480.653472 677.016706
-993.213278 -1482.638411 677.016706
-993.458259 -1484.623351 677.016706
-993.703240 -1486.608290 677.016706
-993.948221 -1488.593229 677.016706
-994.193202 -1490.578169 677.016706
-994.438183 -1492.563108 677.016706
-994.683164 -1494.548047 677.016706
-994.928146 -1496.532987 677.016706
-995.173127 -1498.517926 677.016706
-995.418108 -1500.502865 677.016706
-995.663089 -1502.487805 677.016706
-995.908070 -1504.472744 677.016706
-996.153051 -1506.457683 677.016706
-996.398032 -1508.442623 677.016706
-996.643013 -1510.427562 677.016706
-996.887995 -1512.412502 677.016706
-997.132976 -1514.397441 677.016706
-997.377957 -1516.382380 677.016706
-997.622938 -1518.367320 677.016706
-997.867919 -1520.352259 677.016706
-998.112900 -1522.337198 677.016706
-998.357881 -1524.322138 677.016706
-998.602862 -1526.307077 677.016706
-998.847843 -1528.292016 677.016706
-999.092825 -1530.276956 677.016706
-999.337806 -1532.261895 677.016706
-999.582787 -1534.246834 677.016706
-999.827768 -1536.231774 677.016706
-1000.072749 -1538.216713 677.016706
-1000.317730 -1540.201653 677.016706
-1000.562711 -1542.186592 677.016706
-1000.807692 -1544.171531 677.016706
-1001.052674 -1546.156471 677.016706
-1001.297655 -1548.141410 677.016706
-1001.542636 -1550.126349 677.016706
-1001.787617 -1552.111289 677.016706
-1002.032598 -1554.096228 677.016706
-1002.277579 -1556.081167 677.016706
-1002.522560 -1558.066107 677.016706
-1002.767541 -1560.051046 677.016706
-1003.012522 -1562.035985 677.016706
-1003.257504 -1564.020925 677.016706
-1003.502485 -1566.005864 677.016706
-1003.747466 -1567.990804 677.016706
-1003.992447 -1569.975743 677.016706
-1004.237428 -1571.960682 677.016706
-1004.482409 -1573.945622 677.016706
-1004.727390 -1575.930561 677.016706
-1004.972371 -1577.915500 677.016706
-1005.217353 -1579.900440 677.016706
-1005.462334 -1581.885379 677.016706
-1005.707315 -1583.870318 677.016706
-1005.952296 -1585.855258 677.016706
-1006.197277 -1587.840197 677.016706
-1006.442258 -1589.825136 677.016706
-1006.687239 -1591.810076 677.016706
-1006.932220 -1593.795015 677.016706
-1007.177201 -1595.779955 677.016706
-1007.422183 -1597.764894 677.016706
-1007.667164 -1599.749833 677.016706
-1007.912145 -1601.734773 677.016706
-1008.157126 -1603.719712 677.016706
-1008.402107 -1605.704651 677.016706
-1008.647088 -1607.689591 677.016706
-1008.892069 -1609.674530 677.016706
-1009.137050 -1611.659469 677.016706
-1009.382032 -1613.644409 677.016706
-1009.627013 -1615.629348 677.016706
-1009.871994 -1617.614287 677.016706
-1010.116975 -1619.599227 677.016706
-1010.361956 -1621.584166 677.016706
-1010.606937 -1623.569106 677.016706
-1010.851918 -1625.554045 677.016706
-1011.096899 -1627.538984 677.016706
-1011.341880 -1629.523924 677.016706
-1011.586862 -1631.508863 677.016706
-1011.831843 -1633.493802 677.016706
-1012.076824 -1635.478742 677.016706
-1012.321805 -1637.463681 677.016706
-1012.566786 -1639.448620 677.016706
-1012.811767 -1641.433560 677.016706
-1013.056748 -1643.418499 677.016706
-1013.301729 -1645.403438 677.016706
-1013.546711 -1647.388378 677.016706
-1013.791692 -1649.373317 677.016706
-1014.036673 -1651.358257 677.016706
-1014.281654 -1653.343196 677.016706
-1014.526635 -1655.328135 677.016706
-1014.771616 -1657.313075 677.016706
-1015.016597 -1659.298014 677.016706
-1015.261578 -1661.282953 677.016706
-1015.506559 -1663.267893 677.016706
-1015.751541 -1665.252832 677.016706
-1015.996522 -1667.237771 677.016706
-1016.241503 -1669.222711 677.016706
-1016.486484 -1671.207650 677.016706
-1016.731465 -1673.192589 677.016706
-1016.976446 -1675.177529 677.016706
-1017.221427 -1677.162468 677.016706
-1017.466408 -1679.147408 677.016706
-1017.711390 -1681.132347 677.016706
-1017.956371 -1683.117286 677.016706
-1018.201352 -1685.102226 677.016706
-1018.446333 -1687.087165 677.016706
-1018.691314 -1689.072104 677.016706
-1018.936295 -1691.057044 677.016706
-1019.181276 -1693.041983 677.016706
-1019.426257 -1695.026922 677.016706
-1019.671238 -1697.011862 677.016706
-1019.916220 -1698.996801 677.016706
-1020.161201 -1700.981740 677.016706
-1020.406182 -1702.966680 677.016706
-1020.651163 -1704.951619 677.016706
-1020.896144 -1706.936559 677.016706
-1021.141125 -1708.921498 677.016706
-1021.386106 -1710.906437 677.016706
-1021.631087 -1712.891377 677.016706
-1021.876069 -1714.876316 677.016706
-1022.121050 -1716.861255 677.016706
-1022.366031 -1718.846195 677.016706
-1022.611012 -1720.831134 677.016706
-1022.855993 -1722.816073 677.016706
-1023.100974 -1724.801013 677.016706
-1023.345955 -1726.785952 677.016706
-1023.590936 -1728.770892 677.016706
-1023.835917 -1730.755831 677.016706
-1024.080899 -1732.740770 677.016706
-1024.325880 -1734.725710 677.016706
-1024.570861 -1736.710649 677.016706
-1024.815842 -1738.695588 677.016706
-1025.060823 -1740.680528 677.016706
-1025.305804 -1742.665467 677.016706
-1025.550785 -1744.650406 677.016706
-1025.795766 -1746.635346 677.016706
-1026.040748 -1748.620285 677.016706
-1026.285729 -1750.605224 677.016706
-1026.530710 -1752.590164 677.016706
-1026.775691 -1754.575103 677.016706
-1027.020672 -1756.560043 677.016706
-1027.265653 -1758.544982 677.016706
-1027.510634 -1760.529921 677.016706
-1027.755615 -1762.514861 677.016706
-1028.000596 -1764.499800 677.016706
-1028.245578 -1766.484739 677.016706
-1028.490559 -1768.469679 677.016706
-1028.735540 -1770.454618 677.016706
-1028.980521 -1772.439557 677.016706
-1029.225502 -1774.424497 677.016706
-1029.470483 -1776.409436 677.016706
-1029.715464 -1778.394375 677.016706
-1029.960445 -1780.379315 677.016706
-1030.205426 -1782.364254 677.016706
-1030.450408 -1784.349194 677.016706
-1030.695389 -1786.334133 677.016706
-1030.940370 -1788.319072 677.016706
-1031.185351 -1790.304012 677.016706
-1031.430332 -1792.288951 677.016706
-1031.675313 -1794.273890 677.016706
-1031.920294 -1796.258830 677.016706
-1032.165275 -1798.243769 677.016706
-1032.410257 -1800.228708 677.016706
-1032.655238 -1802.213648 677.016706
-1032.900219 -1804.198587 677.016706
-1033.145200 -1806.183526 677.016706
-1033.390181 -1808.168466 677.016706
-1033.635162 -1810.153405 677.016706
-1033.880143 -1812.138345 677.016706
-1034.125124 -1814.123284 677.016706
-1034.370105 -1816.108223 677.016706
-1034.615087 -1818.093163 677.016706
-1034.860068 -1820.078102 677.016706
-1035.105049 -1822.063041 677.016706
-1035.350030 -1824.047981 677.016706
-1035.595011 -1826.032920 677.016706
-1035.839992 -1828.017859 677.016706
-1036.084973 -1830.002799 677.016706
-1036.329954 -1831.987738 677.016706
-1036.574936 -1833.972677 677.016706
-1036.819917 -1835.957617 677.016706
-1037.064898 -1837.942556 677.016706
-1037.309879 -1839.927496 677.016706
-1037.554860 -1841.912435 677.016706
-1037.799841 -1843.897374 677.016706
-1038.044822 -1845.882314 677.016706
-1038.289803 -1847.867253 677.016706
-1038.534784 -1849.852192 677.016706
-1038.779766 -1851.837132 677.016706
-1039.024747 -1853.822071 677.016706
-1039.269728 -1855.807010 677.016706
-1039.514709 -1857.791950 677.016706
-1039.759690 -1859.776889 677.016706
-1040.004671 -1861.761828 677.016706
-1040.249652 -1863.746768 677.016706
-1040.494633 -1865.731707 677.016706
-1040.739615 -1867.716647 677.016706
-1040.984596 -1869.701586 677.016706
-1041.229577 -1871.686525 677.016706
-1041.474558 -1873.671465 677.016706
-1041.719539 -1875.656404 677.016706
-1041.964520 -1877.641343 677.016706
-1042.209501 -1879.626283 677.016706
-1042.454482 -1881.611222 677.016706
-1042.699463 -1883.596161 677.016706
-1042.944445 -1885.581101 677.016706
-1043.189426 -1887.566040 677.016706
-1043.434407 -1889.550979 677.016706
-1043.679388 -1891.535919 677.016706
-1043.924369 -1893.520858 677.016706
-1044.169350 -1895.505798 677.016706
-1044.414331 -1897.490737 677.016706
-1044.659312 -1899.475676 677.016706
-1044.904294 -1901.460616 677.016706
-1045.149275 -1903.445555 677.016706
-1045.394256 -1905.430494 677.016706
-1045.639237 -1907.415434 677.016706
-1045.884218 -1909.400373 677.016706
-1046.129199 -1911.385312 677.016706
-1046.374180 -1913.370252 677.016706
-1046.619161 -1915.355191 677.016706
-1046.864142 -1917.340130 677.016706
-1047.109124 -1919.325070 677.016706
-1047.354105 -1921.310009 677.016706
-1047.599086 -1923.294949 677.016706
-1047.844067 -1925.279888 677.016706
-1048.089048 -1927.264827 677.016706
-1048.334029 -1929.249767 677.016706
-1048.579010 -1931.234706 677.016706
-1048.823991 -1933.219645 677.016706
-1049.068973 -1935.204585 677.016706
-1049.313954 -1937.189524 677.016706
-1049.558935 -1939.174463 677.016706
-1049.803916 -1941.159403 677.016706
-1050.048897 -1943.144342 677.016706
-1050.293878 -1945.129281 677.016706
-1050.538859 -1947.114221 677.016706
-1050.783840 -1949.099160 677.016706
-1051.028821 -1951.084100 677.016706
-1051.273803 -1953.069039 677.016706
-1051.518784 -1955.053978 677.016706
-1051.763765 -1957.038918 677.016706
-1052.008746 -1959.023857 677.016706
-1052.253727 -1961.008796 677.016706
-1052.498708 -1962.993736 677.016706
-1052.743689 -1964.978675 677.016706
-1052.988670 -1966.963614 677.016706
-1053.233652 -1968.948554 677.016706
-1053.478633 -1970.933493 677.016706
-1053.723614 -1972.918432 677.016706
-1053.968595 -1974.903372 677.016706
-1054.213576 -1976.888311 677.016706
-1054.458557 -1978.873251 677.016706
-1054.703538 -1980.858190 677.016706
-1054.948519 -1982.843129 677.016706
-1055.193500 -1984.828069 677.016706
-1055.438482 -1986.813008 677.016706
-1055.683463 -1988.797947 677.016706
-1055.928444 -1990.782887 677.016706
-1056.173425 -1992.767826 677.016706
-1056.418406 -1994.752765 677.016706
-1056.663387 -1996.737705 677.016706
-1056.908368 -1998.722644 677.016706
-1057.153349 -2000.707583 677.016706
-1057.398331 -2002.692523 677.016706
-1057.643312 -2004.677462 677.016706
-1057.888293 -2006.662402 677.016706
-1058.133274 -2008.647341 677.016706
-1058.378255 -2010.632280 677.016706
-1058.623236 -2012.617220 677.016706
-1058.868217 -2014.602159 677.016706
-1059.113198 -2016.587098 677.016706
-1059.358179 -2018.572038 677.016706
-1059.603161 -2020.556977 677.016706
-1059.848142 -2022.541916 677.016706
-1060.093123 -2024.526856 677.016706
-1060.338104 -2026.511795 677.016706
-1060.583085 -2028.496734 677.016706
-1060.828066 -2030.481674 677.016706
-1061.073047 -2032.466613 677.016706
-1061.318028 -2034.451553 677.016706
-1061.563010 -2036.436492 677.016706
-1061.807991 -2038.421431 677.016706
-1062.052972 -2040.406371 677.016706
-1062.297953 -2042.391310 677.016706
-1062.542934 -2044.376249 677.016706
-1062.787915 -2046.361189 677.016706
-1063.032896 -2048.346128 677.016706
-1063.277877 -2050.331067 677.016706
-1063.522858 -2052.316007 677.016706
-1063.767840 -2054.300946 677.016706
-1064.012821 -2056.285885 677.016706
-1064.257802 -2058.270825 677.016706
-1064.502783 -2060.255764 677.016706
-1064.747764 -2062.240704 677.016706
-1064.992745 -2064.225643 677.016706
-1065.237726 -2066.210582 677.016706
-1065.482707 -2068.195522 677.016706
-1065.727689 -2070.180461 677.016706
-1065.972670 -2072.165400 677.016706
-1066.217651 -2074.150340 677.016706
-1066.462632 -2076.135279 677.016706
-1066.707613 -2078.120218 677.016706
-1066.952594 -2080.105158 677.016706
-1067.197575 -2082.090097 677.016706
-1067.442556 -2084.075036 677.016706
-1067.687537 -2086.059976 677.016706
-1067.932519 -2088.044915 677.016706
-1068.177500 -2090.029855 677.016706
-1068.422481 -2092.014794 677.016706
-1068.667462 -2093.999733 677.016706
-1068.912443 -2095.984673 677.016706
-1069.157424 -2097.969612 677.016706
-1069.402405 -2099.954551 677.016706
-1069.647386 -2101.939491 677.016706
-1069.892368 -2103.924430 677.016706
-1070.137349 -2105.909369 677.016706
-1070.382330 -2107.894309 677.016706
-1070.627311 -2109.879248 677.016706
-1070.872292 -2111.864187 677.016706
-1071.117273 -2113.849127 677.016706
-1071.362254 -2115.834066 677.016706
-1071.607235 -2117.819006 677.016706
-1071.852216 -2119.803945 677.016706
-1072.097198 -2121.788884 677.016706
-1072.342179 -2123.773824 677.016706
-1072.587160 -2125.758763 677.016706
-1072.832141 -2127.743702 677.016706
-1073.077122 -2129.728642 677.016706
-1073.322103 -2131.713581 677.016706
-1073.567084 -2133.698520 677.016706
-1073.812065 -2135.683460 677.016706
-1074.057047 -2137.668399 677.016706
-1074.302028 -2139.653338 677.016706
-1074.547009 -2141.638278 677.016706
-1074.791990 -2143.623217 677.016706
-1075.036971 -2145.608157 677.016706
-1075.281952 -2147.593096 677.016706
-1075.526933 -2149.578035 677.016706
-1075.771914 -2151.562975 677.016706
-1076.016895 -2153.547914 677.016706
-1076.261877 -2155.532853 677.016706
-1076.506858 -2157.517793 677.016706
-1076.751839 -2159.502732 677.016706
-1076.996820 -2161.487671 677.016706
-1077.241801 -2163.472611 677.016706
-1077.486782 -2165.457550 677.016706
-1077.731763 -2167.442489 677.016706
-1077.976744 -2169.427429 677.016706
-1078.221725 -2171.412368 677.016706
-1078.466707 -2173.397308 677.016706
-1078.711688 -2175.382247 677.016706
-1078.956669 -2177.367186 677.016706
-1079.201650 -2179.352126 677.016706
-1079.446631 -2181.337065 677.016706
-1079.691612 -2183.322004 677.016706
-1079.936593 -2185.306944 677.016706
-1080.181574 -2187.291883 677.016706
-1080.426556 -2189.276822 677.016706
-1080.671537 -2191.261762 677.016706
-1080.916518 -2193.246701 677.016706
-1081.161499 -2195.231640 677.016706
-1081.406480 -2197.216580 677.016706
-1081.651461 -2199.201519 677.016706
-1081.896442 -2201.186459 677.016706
-1082.141423 -2203.171398 677.016706
-1082.386404 -2205.156337 677.016706
-1082.631386 -2207.141277 677.016706
-1082.876367 -2209.126216 677.016706
-1083.121348 -2211.111155 677.016706
-1083.366329 -2213.096095 677.016706
-1083.611310 -2215.081034 677.016706
-1083.856291 -2217.065973 677.016706
-1084.101272 -2219.050913 677.016706
-1084.346253 -2221.035852 677.016706
-1084.591235 -2223.020791 677.016706
-1084.836216 -2225.005731 677.016706
-1085.081197 -2226.990670 677.016706
-1085.326178 -2228.975610 677.016706
-1085.571159 -2230.960549 677.016706
-1085.816140 -2232.945488 677.016706
-1086.061121 -2234.930428 677.016706
-1086.306102 -2236.915367 677.016706
-1086.551083 -2238.900306 677.016706
-1086.796065 -2240.885246 677.016706
-1087.041046 -2242.870185 677.016706
-1087.286027 -2244.855124 677.016706
-1087.531008 -2246.840064 677.016706
-1087.775989 -2248.825003 677.016706
-1088.020970 -2250.809942 677.016706
-1088.265951 -2252.794882 677.016706
-1088.510932 -2254.779821 677.016706
-1088.755914 -2256.764761 677.016706
-1089.000895 -2258.749700 677.016706
-1089.245876 -2260.734639 677.016706
-1089.490857 -2262.719579 677.016706
-1089.735838 -2264.704518 677.016706
-1090.000000 -2266.844869 677.016706
-1091.299097 -2268.079109 676.128451
-1092.598194 -2269.313350 675.240196
-1093.897291 -2270.547590 674.351941
-1095.196388 -2271.781831 673.463686
-1096.495485 -2273.016072 672.575431
-1097.794582 -2274.250312 671.687176
-1099.093679 -2275.484553 670.798920
-1100.392776 -2276.718793 669.910665
-1101.691873 -2277.953034 669.022410
-1102.990970 -2279.187275 668.134155
-1104.290067 -2280.421515 667.245900
-1105.589164 -2281.655756 666.357645
-1106.888261 -2282.889996 665.469389
-1108.187358 -2284.124237 664.581134
-1109.486455 -2285.358477 663.692879
-1110.785552 -2286.592718 662.804624
-1112.084649 -2287.826959 661.916369
-1113.383746 -2289.061199 661.028114
-1114.682843 -2290.295440 660.139858
-1115.981940 -2291.529680 659.251603
-1117.281037 -2292.763921 658.363348
-1118.580134 -2293.998162 657.475093
-1119.879231 -2295.232402 656.586838
-1121.178328 -2296.466643 655.698583
-1122.477425 -2297.700883 654.810328
-1123.776521 -2298.935124 653.922072
-1125.075618 -2300.169364 653.033817
-1126.374715 -2301.403605 652.145562
-1127.673812 -2302.637846 651.257307
-1128.972909 -2303.872086 650.369052
-1130.272006 -2305.106327 649.480797
-1131.571103 -2306.340567 648.592541
-1132.870200 -2307.574808 647.704286
-1134.169297 -2308.809049 646.816031
-1135.468394 -2310.043289 645.927776
-1136.767491 -2311.277530 645.039521
-1138.066588 -2312.511770 644.151266
-1139.365685 -2313.746011 643.263011
-1140.664782 -2314.980251 642.374755
-1141.963879 -2316.214492 641.486500
-1143.262976 -2317.448733 640.598245
-1144.562073 -2318.682973 639.709990
-1145.861170 -2319.917214 638.821735
-1147.160267 -2321.151454 637.933480
-1148.459364 -2322.385695 637.045224
-1149.758461 -2323.619935 636.156969
-1151.057558 -2324.854176 635.268714
-1152.356655 -2326.088417 634.380459
-1153.655752 -2327.322657 633.492204
-1154.954849 -2328.556898 632.603949
-1156.253946 -2329.791138 631.715694
-1157.553043 -2331.025379 630.827438
-1158.852140 -2332.259620 629.939183
-1160.151237 -2333.493860 629.050928
-1161.450334 -2334.728101 628.162673
-1162.749431 -2335.962341 627.274418
-1164.048528 -2337.196582 626.386163
-1165.347625 -2338.430822 625.497907
-1166.646722 -2339.665063 624.609652
-1167.945819 -2340.899304 623.721397
-1169.244916 -2342.133544 622.833142
-1170.544013 -2343.367785 621.944887
-1171.843110 -2344.602025 621.056632
-1173.142207 -2345.836266 620.168376
-1174.441304 -2347.070507 619.280121
-1175.740401 -2348.304747 618.391866
-1177.039498 -2349.538988 617.503611
