-2183.002616 -345.573322 465.279286
-2184.863409 -345.188174 465.903075
-2186.724202 -344.803026 466.526863
-2188.584994 -344.417879 467.150651
-2190.445787 -344.032731 467.774440
-2192.306579 -343.647583 468.398228
-2194.167372 -343.262435 469.022017
-2196.028165 -342.877287 469.645805
-2197.888957 -342.492140 470.269594
-2199.749750 -342.106992 470.893382
-2201.610543 -341.721844 471.517171
-2203.471335 -341.336696 472.140959
-2205.332128 -340.951548 472.764747
-2207.192920 -340.566400 473.388536
-2209.053713 -340.181253 474.012324
-2212.000000 -339.571429 475.000000
-2212.100477 -339.571429 473.002525
-2212.200953 -339.571429 471.005051
-2212.301430 -339.571429 469.007576
-2212.401906 -339.571429 467.010102
-2212.502383 -339.571429 465.012627
-2212.602860 -339.571429 463.015153
-2212.703336 -339.571429 461.017678
-2212.803813 -339.571429 459.020204
-2212.904289 -339.571429 457.022729
-2213.004766 -339.571429 455.025255
-2213.105242 -339.571429 453.027780
-2213.205719 -339.571429 451.030306
-2213.306196 -339.571429 449.032831
-2213.406672 -339.571429 447.035357
-2213.507149 -339.571429 445.037882
-2213.607625 -339.571429 443.040408
-2213.708102 -339.571429 441.042933
-2213.808579 -339.571429 439.045459
-2213.909055 -339.571429 437.047984
-2214.009532 -339.571429 435.050510
-2214.110008 -339.571429 433.053035
-2214.210485 -339.571429 431.055561
-2214.310961 -339.571429 429.058086
-2214.411438 -339.571429 427.060612
-2214.511915 -339.571429 425.063137
-2214.612391 -339.571429 423.065662
-2214.712868 -339.571429 421.068188
-2214.813344 -339.571429 419.070713
-2214.913821 -339.571429 417.073239
-2215.014298 -339.571429 415.075764
-2215.114774 -339.571429 413.078290
-2215.215251 -339.571429 411.080815
-2215.315727 -339.571429 409.083341
-2215.416204 -339.571429 407.085866
-2215.571429 -339.571429 404.000000
-2215.563005 -339.571429 402.000018
-2215.554582 -339.571429 400.000035
-2215.546159 -339.571429 398.000053
-2215.537736 -339.571429 396.000071
-2215.529313 -339.571429 394.000089
-2215.520890 -339.571429 392.000106
-2215.512467 -339.571429 390.000124
-2215.504044 -339.571429 388.000142
-2215.495621 -339.571429 386.000160
-2215.487198 -339.571429 384.000177
-2215.478774 -339.571429 382.000195
-2215.470351 -339.571429 380.000213
-2215.461928 -339.571429 378.000231
-2215.453505 -339.571429 376.000248
-2215.445082 -339.571429 374.000266
-2215.436659 -339.571429 372.000284
-2215.428236 -339.571429 370.000302
-2215.419813 -339.571429 368.000319
-2215.411390 -339.571429 366.000337
-2215.402966 -339.571429 364.000355
-2215.394543 -339.571429 362.000372
-2215.386120 -339.571429 360.000390
-2215.377697 -339.571429 358.000408
-2215.369274 -339.571429 356.000426
-2215.360851 -339.571429 354.000443
-2215.352428 -339.571429 352.000461
-2215.344005 -339.571429 350.000479
-2215.335582 -339.571429 348.000497
-2215.327159 -339.571429 346.000514
-2215.318735 -339.571429 344.000532
-2215.310312 -339.571429 342.000550
-2215.301889 -339.571429 340.000568
-2215.293466 -339.571429 338.000585
-2215.285043 -339.571429 336.000603
-2215.276620 -339.571429 334.000621
-2215.268197 -339.571429 332.000639
-2215.259774 -339.571429 330.000656
-2215.251351 -339.571429 328.000674
-2215.242927 -339.571429 326.000692
-2215.234504 -339.571429 324.000709
-2215.226081 -339.571429 322.000727
-2215.217658 -339.571429 320.000745
-2215.209235 -339.571429 318.000763
-2215.200812 -339.571429 316.000780
-2215.192389 -339.571429 314.000798
-2215.183966 -339.571429 312.000816
-2215.175543 -339.571429 310.000834
-2215.167119 -339.571429 308.000851
-2215.158696 -339.571429 306.000869
-2215.150273 -339.571429 304.000887
-2215.141850 -339.571429 302.000905
-2215.133427 -339.571429 300.000922
-2215.125004 -339.571429 298.000940
-2215.116581 -339.571429 296.000958
-2215.108158 -339.571429 294.000976
-2215.099735 -339.571429 292.000993
-2215.091312 -339.571429 290.001011
-2215.082888 -339.571429 288.001029
-2215.074465 -339.571429 286.001046
-2215.066042 -339.571429 284.001064
-2215.057619 -339.571429 282.001082
-2215.049196 -339.571429 280.001100
-2215.040773 -339.571429 278.001117
-2215.032350 -339.571429 276.001135
-2215.023927 -339.571429 274.001153
-2215.015504 -339.571429 272.001171
-2215.007080 -339.571429 270.001188
-2214.998657 -339.571429 268.001206
-2214.990234 -339.571429 266.001224
-2214.981811 -339.571429 264.001242
-2214.973388 -339.571429 262.001259
-2214.964965 -339.571429 260.001277
-2214.956542 -339.571429 258.001295
-2214.948119 -339.571429 256.001313
-2214.939696 -339.571429 254.001330
-2214.931273 -339.571429 252.001348
-2214.922849 -339.571429 250.001366
-2214.914426 -339.571429 248.001384
-2214.906003 -339.571429 246.001401
-2214.897580 -339.571429 244.001419
-2214.889157 -339.571429 242.001437
-2214.880734 -339.571429 240.001454
-2214.872311 -339.571429 238.001472
-2214.863888 -339.571429 236.001490
-2214.855465 -339.571429 234.001508
-2214.847041 -339.571429 232.001525
-2214.838618 -339.571429 230.001543
-2214.830195 -339.571429 228.001561
-2214.821772 -339.571429 226.001579
-2214.813349 -339.571429 224.001596
-2214.804926 -339.571429 222.001614
-2214.796503 -339.571429 220.001632
-2214.788080 -339.571429 218.001650
-2214.779657 -339.571429 216.001667
-2214.771234 -339.571429 214.001685
-2214.762810 -339.571429 212.001703
-2214.754387 -339.571429 210.001721
-2214.745964 -339.571429 208.001738
-2214.737541 -339.571429 206.001756
-2214.729118 -339.571429 204.001774
-2214.720695 -339.571429 202.001791
-2214.712272 -339.571429 200.001809
-2214.703849 -339.571429 198.001827
-2214.695426 -339.571429 196.001845
-2214.687002 -339.571429 194.001862
-2214.678579 -339.571429 192.001880
-2214.670156 -339.571429 190.001898
-2214.661733 -339.571429 188.001916
-2214.653310 -339.571429 186.001933
-2214.644887 -339.571429 184.001951
-2214.636464 -339.571429 182.001969
-2214.628041 -339.571429 180.001987
-2214.619618 -339.571429 178.002004
-2214.611194 -339.571429 176.002022
-2214.602771 -339.571429 174.002040
-2214.594348 -339.571429 172.002058
-2214.585925 -339.571429 170.002075
-2214.577502 -339.571429 168.002093
-2214.569079 -339.571429 166.002111
-2214.560656 -339.571429 164.002128
-2214.552233 -339.571429 162.002146
-2214.543810 -339.571429 160.002164
-2214.535387 -339.571429 158.002182
-2214.526963 -339.571429 156.002199
-2214.518540 -339.571429 154.002217
-2214.510117 -339.571429 152.002235
-2214.501694 -339.571429 150.002253
-2214.493271 -339.571429 148.002270
-2214.484848 -339.571429 146.002288
-2214.476425 -339.571429 144.002306
-2214.468002 -339.571429 142.002324
-2214.459579 -339.571429 140.002341
-2214.451155 -339.571429 138.002359
-2214.442732 -339.571429 136.002377
-2214.434309 -339.571429 134.002395
-2214.425886 -339.571429 132.002412
-2214.417463 -339.571429 130.002430
-2214.409040 -339.571429 128.002448
-2214.400617 -339.571429 126.002465
-2214.392194 -339.571429 124.002483
-2214.383771 -339.571429 122.002501
-2214.375348 -339.571429 120.002519
-2214.366924 -339.571429 118.002536
-2214.358501 -339.571429 116.002554
-2214.350078 -339.571429 114.002572
-2214.341655 -339.571429 112.002590
-2214.333232 -339.571429 110.002607
-2214.324809 -339.571429 108.002625
-2214.316386 -339.571429 106.002643
-2214.307963 -339.571429 104.002661
-2214.299540 -339.571429 102.002678
-2214.291116 -339.571429 100.002696
-2214.282693 -339.571429 98.002714
-2214.274270 -339.571429 96.002732
-2214.265847 -339.571429 94.002749
-2214.257424 -339.571429 92.002767
-2214.249001 -339.571429 90.002785
-2214.240578 -339.571429 88.002802
-2214.232155 -339.571429 86.002820
-2214.223732 -339.571429 84.002838
-2214.215309 -339.571429 82.002856
-2214.206885 -339.571429 80.002873
-2214.198462 -339.571429 78.002891
-2214.190039 -339.571429 76.002909
-2214.181616 -339.571429 74.002927
-2214.173193 -339.571429 72.002944
-2214.164770 -339.571429 70.002962
-2214.156347 -339.571429 68.002980
-2214.147924 -339.571429 66.002998
-2214.139501 -339.571429 64.003015
-2214.131077 -339.571429 62.003033
-2214.122654 -339.571429 60.003051
-2214.114231 -339.571429 58.003069
-2214.105808 -339.571429 56.003086
-2214.097385 -339.571429 54.003104
-2214.088962 -339.571429 52.003122
-2214.080539 -339.571429 50.003139
-2214.072116 -339.571429 48.003157
-2214.063693 -339.571429 46.003175
-2214.055270 -339.571429 44.003193
-2214.046846 -339.571429 42.003210
-2214.038423 -339.571429 40.003228
-2214.030000 -339.571429 38.003246
-2214.021577 -339.571429 36.003264
-2214.013154 -339.571429 34.003281
-2214.004731 -339.571429 32.003299
-2213.996308 -339.571429 30.003317
-2213.987885 -339.571429 28.003335
-2213.979462 -339.571429 26.003352
-2213.971038 -339.571429 24.003370
-2213.962615 -339.571429 22.003388
-2213.954192 -339.571429 20.003406
-2213.945769 -339.571429 18.003423
-2213.937346 -339.571429 16.003441
-2213.928923 -339.571429 14.003459
-2213.920500 -339.571429 12.003477
-2213.912077 -339.571429 10.003494
-2213.903654 -339.571429 8.003512
-2213.895230 -339.571429 6.003530
-2213.886807 -339.571429 4.003547
-2213.878384 -339.571429 2.003565
-2213.869961 -339.571429 0.003583
-2213.861538 -339.571429 -1.996399
-2213.853115 -339.571429 -3.996382
-2213.844692 -339.571429 -5.996364
-2213.836269 -339.571429 -7.996346
-2213.827846 -339.571429 -9.996328
-2213.819423 -339.571429 -11.996311
-2213.810999 -339.571429 -13.996293
-2213.802576 -339.571429 -15.996275
-2213.794153 -339.571429 -17.996257
-2213.785730 -339.571429 -19.996240
-2213.777307 -339.571429 -21.996222
-2213.768884 -339.571429 -23.996204
-2213.760461 -339.571429 -25.996186
-2213.752038 -339.571429 -27.996169
-2213.743615 -339.571429 -29.996151
-2213.735191 -339.571429 -31.996133
-2213.726768 -339.571429 -33.996116
-2213.718345 -339.571429 -35.996098
-2213.709922 -339.571429 -37.996080
-2213.701499 -339.571429 -39.996062
-2213.693076 -339.571429 -41.996045
-2213.684653 -339.571429 -43.996027
-2213.676230 -339.571429 -45.996009
-2213.667807 -339.571429 -47.995991
-2213.659384 -339.571429 -49.995974
-2213.650960 -339.571429 -51.995956
-2213.642537 -339.571429 -53.995938
-2213.634114 -339.571429 -55.995920
-2213.625691 -339.571429 -57.995903
-2213.617268 -339.571429 -59.995885
-2213.608845 -339.571429 -61.995867
-2213.600422 -339.571429 -63.995849
-2213.591999 -339.571429 -65.995832
-2213.583576 -339.571429 -67.995814
-2213.575152 -339.571429 -69.995796
-2213.566729 -339.571429 -71.995779
-2213.558306 -339.571429 -73.995761
-2213.549883 -339.571429 -75.995743
-2213.541460 -339.571429 -77.995725
-2213.533037 -339.571429 -79.995708
-2213.524614 -339.571429 -81.995690
-2213.516191 -339.571429 -83.995672
-2213.507768 -339.571429 -85.995654
-2213.499345 -339.571429 -87.995637
-2213.490921 -339.571429 -89.995619
-2213.482498 -339.571429 -91.995601
-2213.474075 -339.571429 -93.995583
-2213.465652 -339.571429 -95.995566
-2213.457229 -339.571429 -97.995548
-2213.448806 -339.571429 -99.995530
-2213.440383 -339.571429 -101.995512
-2213.431960 -339.571429 -103.995495
-2213.423537 -339.571429 -105.995477
-2213.415113 -339.571429 -107.995459
-2213.406690 -339.571429 -109.995442
-2213.398267 -339.571429 -111.995424
-2213.389844 -339.571429 -113.995406
-2213.381421 -339.571429 -115.995388
-2213.372998 -339.571429 -117.995371
-2213.364575 -339.571429 -119.995353
-2213.356152 -339.571429 -121.995335
-2213.347729 -339.571429 -123.995317
-2213.339306 -339.571429 -125.995300
-2213.330882 -339.571429 -127.995282
-2213.322459 -339.571429 -129.995264
-2213.314036 -339.571429 -131.995246
-2213.305613 -339.571429 -133.995229
-2213.297190 -339.571429 -135.995211
-2213.288767 -339.571429 -137.995193
-2213.280344 -339.571429 -139.995175
-2213.271921 -339.571429 -141.995158
-2213.263498 -339.571429 -143.995140
-2213.255074 -339.571429 -145.995122
-2213.246651 -339.571429 -147.995105
-2213.238228 -339.571429 -149.995087
-2213.229805 -339.571429 -151.995069
-2213.221382 -339.571429 -153.995051
-2213.212959 -339.571429 -155.995034
-2213.204536 -339.571429 -157.995016
-2213.196113 -339.571429 -159.994998
-2213.187690 -339.571429 -161.994980
-2213.179266 -339.571429 -163.994963
-2213.170843 -339.571429 -165.994945
-2213.162420 -339.571429 -167.994927
-2213.153997 -339.571429 -169.994909
-2213.145574 -339.571429 -171.994892
-2213.137151 -339.571429 -173.994874
-2213.128728 -339.571429 -175.994856
-2213.120305 -339.571429 -177.994838
-2213.111882 -339.571429 -179.994821
-2213.103459 -339.571429 -181.994803
-2213.095035 -339.571429 -183.994785
-2213.086612 -339.571429 -185.994768
-2213.078189 -339.571429 -187.994750
-2213.069766 -339.571429 -189.994732
-2213.061343 -339.571429 -191.994714
-2213.052920 -339.571429 -193.994697
-2213.044497 -339.571429 -195.994679
-2213.036074 -339.571429 -197.994661
-2213.027651 -339.571429 -199.994643
-2213.019227 -339.571429 -201.994626
-2213.010804 -339.571429 -203.994608
-2213.002381 -339.571429 -205.994590
-2212.993958 -339.571429 -207.994572
-2212.985535 -339.571429 -209.994555
-2212.977112 -339.571429 -211.994537
-2212.968689 -339.571429 -213.994519
-2212.960266 -339.571429 -215.994501
-2212.951843 -339.571429 -217.994484
-2212.943420 -339.571429 -219.994466
-2212.934996 -339.571429 -221.994448
-2212.926573 -339.571429 -223.994431
-2212.918150 -339.571429 -225.994413
-2212.909727 -339.571429 -227.994395
-2212.901304 -339.571429 -229.994377
-2212.892881 -339.571429 -231.994360
-2212.884458 -339.571429 -233.994342
-2212.876035 -339.571429 -235.994324
-2212.867612 -339.571429 -237.994306
-2212.859188 -339.571429 -239.994289
-2212.850765 -339.571429 -241.994271
-2212.842342 -339.571429 -243.994253
-2212.833919 -339.571429 -245.994235
-2212.825496 -339.571429 -247.994218
-2212.817073 -339.571429 -249.994200
-2212.808650 -339.571429 -251.994182
-2212.800227 -339.571429 -253.994164
-2212.791804 -339.571429 -255.994147
-2212.783381 -339.571429 -257.994129
-2212.774957 -339.571429 -259.994111
-2212.766534 -339.571429 -261.994093
-2212.758111 -339.571429 -263.994076
-2212.749688 -339.571429 -265.994058
-2212.741265 -339.571429 -267.994040
-2212.732842 -339.571429 -269.994023
-2212.724419 -339.571429 -271.994005
-2212.715996 -339.571429 -273.993987
-2212.707573 -339.571429 -275.993969
-2212.699149 -339.571429 -277.993952
-2212.690726 -339.571429 -279.993934
-2212.682303 -339.571429 -281.993916
-2212.673880 -339.571429 -283.993898
-2212.665457 -339.571429 -285.993881
-2212.657034 -339.571429 -287.993863
-2212.648611 -339.571429 -289.993845
-2212.640188 -339.571429 -291.993827
-2212.631765 -339.571429 -293.993810
-2212.623342 -339.571429 -295.993792
-2212.614918 -339.571429 -297.993774
-2212.606495 -339.571429 -299.993756
-2212.598072 -339.571429 -301.993739
-2212.589649 -339.571429 -303.993721
-2212.581226 -339.571429 -305.993703
-2212.572803 -339.571429 -307.993686
-2212.564380 -339.571429 -309.993668
-2212.555957 -339.571429 -311.993650
-2212.547534 -339.571429 -313.993632
-2212.539110 -339.571429 -315.993615
-2212.530687 -339.571429 -317.993597
-2212.522264 -339.571429 -319.993579
-2212.513841 -339.571429 -321.993561
-2212.505418 -339.571429 -323.993544
-2212.496995 -339.571429 -325.993526
-2212.488572 -339.571429 -327.993508
-2212.480149 -339.571429 -329.993490
-2212.471726 -339.571429 -331.993473
-2212.463302 -339.571429 -333.993455
-2212.454879 -339.571429 -335.993437
-2212.446456 -339.571429 -337.993419
-2212.438033 -339.571429 -339.993402
-2212.429610 -339.571429 -341.993384
-2212.421187 -339.571429 -343.993366
-2212.412764 -339.571429 -345.993349
-2212.404341 -339.571429 -347.993331
-2212.395918 -339.571429 -349.993313
-2212.387495 -339.571429 -351.993295
-2212.379071 -339.571429 -353.993278
-2212.370648 -339.571429 -355.993260
-2212.362225 -339.571429 -357.993242
-2212.353802 -339.571429 -359.993224
-2212.345379 -339.571429 -361.993207
-2212.336956 -339.571429 -363.993189
-2212.328533 -339.571429 -365.993171
-2212.320110 -339.571429 -367.993153
-2212.311687 -339.571429 -369.993136
-2212.303263 -339.571429 -371.993118
-2212.294840 -339.571429 -373.993100
-2212.286417 -339.571429 -375.993082
-2212.277994 -339.571429 -377.993065
-2212.269571 -339.571429 -379.993047
-2212.261148 -339.571429 -381.993029
-2212.252725 -339.571429 -383.993012
-2212.244302 -339.571429 -385.992994
-2212.235879 -339.571429 -387.992976
-2212.227456 -339.571429 -389.992958
-2212.219032 -339.571429 -391.992941
-2212.210609 -339.571429 -393.992923
-2212.202186 -339.571429 -395.992905
-2212.193763 -339.571429 -397.992887
-2212.185340 -339.571429 -399.992870
-2212.176917 -339.571429 -401.992852
-2212.168494 -339.571429 -403.992834
-2212.160071 -339.571429 -405.992816
-2212.151648 -339.571429 -407.992799
-2212.143224 -339.571429 -409.992781
-2212.134801 -339.571429 -411.992763
-2212.126378 -339.571429 -413.992745
-2212.117955 -339.571429 -415.992728
-2212.109532 -339.571429 -417.992710
-2212.101109 -339.571429 -419.992692
-2212.092686 -339.571429 -421.992675
-2212.084263 -339.571429 -423.992657
-2212.075840 -339.571429 -425.992639
-2212.067417 -339.571429 -427.992621
-2212.058993 -339.571429 -429.992604
-2212.050570 -339.571429 -431.992586
-2212.042147 -339.571429 -433.992568
-2212.033724 -339.571429 -435.992550
-2212.025301 -339.571429 -437.992533
-2212.016878 -339.571429 -439.992515
-2212.008455 -339.571429 -441.992497
-2212.000000 -339.571429 -444.000000
-2210.910069 -341.248345 -444.000000
-2209.820137 -342.925262 -444.000000
-2208.730206 -344.602179 -444.000000
-2207.640275 -346.279096 -444.000000
-2206.550344 -347.956012 -444.000000
-2205.460412 -349.632929 -444.000000
-2204.370481 -351.309846 -444.000000
-2203.280550 -352.986763 -444.000000
-2202.190619 -354.663680 -444.000000
-2201.100687 -356.340596 -444.000000
-2200.010756 -358.017513 -444.000000
-2198.920825 -359.694430 -444.000000
-2197.830894 -361.371347 -444.000000
-2196.740962 -363.048263 -444.000000
-2195.651031 -364.725180 -444.000000
-2194.561100 -366.402097 -444.000000
-2193.471169 -368.079014 -444.000000
-2192.381237 -369.755930 -444.000000
-2191.291306 -371.432847 -444.000000
-2190.201375 -373.109764 -444.000000
-2189.111444 -374.786681 -444.000000
-2188.021512 -376.463598 -444.000000
-2186.931581 -378.140514 -444.000000
-2185.841650 -379.817431 -444.000000
-2184.751719 -381.494348 -444.000000
-2183.661787 -383.171265 -444.000000
-2182.571856 -384.848181 -444.000000
-2181.481925 -386.525098 -444.000000
-2180.391994 -388.202015 -444.000000
-2179.302062 -389.878932 -444.000000
-2178.212131 -391.555848 -444.000000
-2177.122200 -393.232765 -444.000000
-2176.032269 -394.909682 -444.000000
-2174.942337 -396.586599 -444.000000
-2173.852406 -398.263516 -444.000000
-2172.762475 -399.940432 -444.000000
-2171.672544 -401.617349 -444.000000
-2170.582612 -403.294266 -444.000000
-2169.492681 -404.971183 -444.000000
-2168.402750 -406.648099 -444.000000
-2167.312819 -408.325016 -444.000000
-2166.222887 -410.001933 -444.000000
-2165.132956 -411.678850 -444.000000
-2164.043025 -413.355767 -444.000000
-2162.953094 -415.032683 -444.000000
-2161.863162 -416.709600 -444.000000
-2160.773231 -418.386517 -444.000000
-2159.683300 -420.063434 -444.000000
-2158.593368 -421.740350 -444.000000
-2157.503437 -423.417267 -444.000000
-2156.413506 -425.094184 -444.000000
-2155.323575 -426.771101 -444.000000
-2154.233643 -428.448017 -444.000000
-2153.143712 -430.124934 -444.000000
-2152.053781 -431.801851 -444.000000
-2150.963850 -433.478768 -444.000000
-2149.873918 -435.155685 -444.000000
-2148.783987 -436.832601 -444.000000
-2147.694056 -438.509518 -444.000000
-2146.604125 -440.186435 -444.000000
-2145.514193 -441.863352 -444.000000
-2144.424262 -443.540268 -444.000000
-2143.334331 -445.217185 -444.000000
-2142.244400 -446.894102 -444.000000
-2141.154468 -448.571019 -444.000000
-2140.064537 -450.247935 -444.000000
-2138.974606 -451.924852 -444.000000
-2137.884675 -453.601769 -444.000000
-2136.794743 -455.278686 -444.000000
-2135.704812 -456.955603 -444.000000
-2134.614881 -458.632519 -444.000000
-2133.524950 -460.309436 -444.000000
-2132.435018 -461.986353 -444.000000
-2131.345087 -463.663270 -444.000000
-2130.255156 -465.340186 -444.000000
-2129.165225 -467.017103 -444.000000
-2128.075293 -468.694020 -444.000000
-2126.985362 -470.370937 -444.000000
-2125.895431 -472.047854 -444.000000
-2124.805500 -473.724770 -444.000000
-2123.715568 -475.401687 -444.000000
-2122.625637 -477.078604 -444.000000
-2121.535706 -478.755521 -444.000000
-2120.445775 -480.432437 -444.000000
-2119.355843 -482.109354 -444.000000
-2118.265912 -483.786271 -444.000000
-2117.175981 -485.463188 -444.000000
-2116.086050 -487.140104 -444.000000
-2114.996118 -488.817021 -444.000000
-2113.906187 -490.493938 -444.000000
-2112.816256 -492.170855 -444.000000
-2111.726324 -493.847772 -444.000000
-2110.636393 -495.524688 -444.000000
-2109.546462 -497.201605 -444.000000
-2108.456531 -498.878522 -444.000000
-2107.366599 -500.555439 -444.000000
-2106.276668 -502.232355 -444.000000
-2105.186737 -503.909272 -444.000000
-2104.096806 -505.586189 -444.000000
-2103.006874 -507.263106 -444.000000
-2101.916943 -508.940022 -444.000000
-2100.827012 -510.616939 -444.000000
-2099.737081 -512.293856 -444.000000
-2098.647149 -513.970773 -444.000000
-2097.557218 -515.647690 -444.000000
-2096.467287 -517.324606 -444.000000
-2095.377356 -519.001523 -444.000000
-2094.287424 -520.678440 -444.000000
-2093.197493 -522.355357 -444.000000
-2091.571429 -524.857143 -444.000000
-2091.571429 -526.852965 -444.129209
-2091.571429 -528.848787 -444.258419
-2091.571429 -530.844608 -444.387628
-2091.571429 -532.840430 -444.516837
-2091.571429 -534.836252 -444.646046
-2091.571429 -536.832074 -444.775256
-2091.571429 -538.827896 -444.904465
-2091.571429 -540.823718 -445.033674
-2091.571429 -542.819540 -445.162883
-2091.571429 -544.815362 -445.292093
-2091.571429 -546.811183 -445.421302
-2091.571429 -548.807005 -445.550511
-2091.571429 -550.802827 -445.679721
-2091.571429 -552.798649 -445.808930
-2091.571429 -554.794471 -445.938139
-2091.571429 -556.790293 -446.067348
-2091.571429 -558.786115 -446.196558
-2091.571429 -560.781937 -446.325767
-2091.571429 -562.777759 -446.454976
-2091.571429 -564.773580 -446.584186
-2091.571429 -566.769402 -446.713395
-2091.571429 -568.765224 -446.842604
-2091.571429 -570.761046 -446.971813
-2091.571429 -572.756868 -447.101023
-2091.571429 -574.752690 -447.230232
-2091.571429 -576.748512 -447.359441
-2091.571429 -578.744334 -447.488650
-2091.571429 -580.740155 -447.617860
-2091.571429 -582.735977 -447.747069
-2091.571429 -584.731799 -447.876278
-2091.571429 -586.727621 -448.005488
-2091.571429 -588.723443 -448.134697
-2091.571429 -590.719265 -448.263906
-2091.571429 -592.715087 -448.393115
-2091.571429 -594.710909 -448.522325
-2091.571429 -596.706730 -448.651534
-2091.571429 -598.702552 -448.780743
-2091.571429 -600.698374 -448.909953
-2091.571429 -602.694196 -449.039162
-2091.571429 -604.690018 -449.168371
-2091.571429 -606.685840 -449.297580
-2091.571429 -608.681662 -449.426790
-2091.571429 -610.677484 -449.555999
-2091.571429 -612.673305 -449.685208
-2091.571429 -614.669127 -449.814417
-2091.571429 -616.664949 -449.943627
-2091.571429 -618.660771 -450.072836
-2091.571429 -620.656593 -450.202045
-2091.571429 -622.652415 -450.331255
-2091.571429 -624.648237 -450.460464
-2091.571429 -626.644059 -450.589673
-2091.571429 -628.639880 -450.718882
-2091.571429 -630.635702 -450.848092
-2091.571429 -632.631524 -450.977301
-2091.571429 -634.627346 -451.106510
-2091.571429 -636.623168 -451.235720
-2091.571429 -638.618990 -451.364929
-2091.571429 -640.614812 -451.494138
-2091.571429 -642.610634 -451.623347
-2091.571429 -644.606455 -451.752557
-2091.571429 -646.602277 -451.881766
-2091.571429 -648.598099 -452.010975
-2091.571429 -650.593921 -452.140184
-2091.571429 -652.589743 -452.269394
-2091.571429 -654.585565 -452.398603
-2091.571429 -656.581387 -452.527812
-2091.571429 -658.577209 -452.657022
-2091.571429 -660.573030 -452.786231
-2091.571429 -662.568852 -452.915440
-2091.571429 -664.564674 -453.044649
-2091.571429 -666.560496 -453.173859
-2091.571429 -668.556318 -453.303068
-2091.571429 -670.552140 -453.432277
-2091.571429 -672.547962 -453.561487
-2091.571429 -674.543784 -453.690696
-2091.571429 -676.539605 -453.819905
-2091.571429 -678.535427 -453.949114
-2091.571429 -680.531249 -454.078324
-2091.571429 -682.527071 -454.207533
-2091.571429 -684.522893 -454.336742
-2091.571429 -686.518715 -454.465951
-2091.571429 -688.514537 -454.595161
-2091.571429 -690.510359 -454.724370
-2091.571429 -692.506180 -454.853579
-2091.571429 -694.502002 -454.982789
-2091.571429 -696.497824 -455.111998
-2091.571429 -698.493646 -455.241207
-2091.571429 -700.489468 -455.370416
-2091.571429 -702.485290 -455.499626
-2091.571429 -704.481112 -455.628835
-2091.571429 -706.476934 -455.758044
-2091.571429 -708.472755 -455.887254
-2091.571429 -710.468577 -456.016463
-2091.571429 -712.464399 -456.145672
-2091.571429 -714.460221 -456.274881
-2091.571429 -716.456043 -456.404091
-2091.571429 -718.451865 -456.533300
-2091.571429 -720.447687 -456.662509
-2091.571429 -722.443509 -456.791718
-2091.571429 -724.439331 -456.920928
-2091.571429 -726.435152 -457.050137
-2091.571429 -728.430974 -457.179346
-2091.571429 -730.426796 -457.308556
-2091.571429 -732.422618 -457.437765
-2091.571429 -734.418440 -457.566974
-2091.571429 -736.414262 -457.696183
-2091.571429 -738.410084 -457.825393
-2091.571429 -740.405906 -457.954602
-2091.571429 -742.401727 -458.083811
-2091.571429 -744.397549 -458.213021
-2091.571429 -746.393371 -458.342230
-2091.571429 -748.389193 -458.471439
-2091.571429 -750.385015 -458.600648
-2091.571429 -752.380837 -458.729858
-2091.571429 -754.376659 -458.859067
-2091.571429 -756.372481 -458.988276
-2091.571429 -758.368302 -459.117485
-2091.571429 -760.364124 -459.246695
-2091.571429 -762.359946 -459.375904
-2091.571429 -764.355768 -459.505113
-2091.571429 -766.351590 -459.634323
-2091.571429 -768.347412 -459.763532
-2091.571429 -772.000000 -460.000000
-2091.536823 -772.328749 -458.027507
-2091.502218 -772.657498 -456.055015
-2091.467613 -772.986246 -454.082522
-2091.433008 -773.314995 -452.110030
-2091.398403 -773.643744 -450.137537
-2091.363798 -773.972493 -448.165045
-2091.329193 -774.301241 -446.192552
-2091.294588 -774.629990 -444.220060
-2091.259982 -774.958739 -442.247567
-2091.225377 -775.287488 -440.275075
-2091.190772 -775.616236 -438.302582
-2091.156167 -775.944985 -436.330090
-2091.121562 -776.273734 -434.357597
-2091.086957 -776.602483 -432.385105
-2091.052352 -776.931231 -430.412612
-2091.017746 -777.259980 -428.440120
-2090.983141 -777.588729 -426.467627
-2090.948536 -777.917478 -424.495135
-2090.913931 -778.246226 -422.522642
-2090.879326 -778.574975 -420.550150
-2090.844721 -778.903724 -418.577657
-2090.810116 -779.232473 -416.605165
-2090.775511 -779.561221 -414.632672
-2090.740905 -779.889970 -412.660180
-2090.706300 -780.218719 -410.687687
-2090.671695 -780.547468 -408.715194
-2090.637090 -780.876216 -406.742702
-2090.602485 -781.204965 -404.770209
-2090.567880 -781.533714 -402.797717
-2090.533275 -781.862463 -400.825224
-2090.498669 -782.191211 -398.852732
-2090.464064 -782.519960 -396.880239
-2090.429459 -782.848709 -394.907747
-2090.394854 -783.177458 -392.935254
-2090.360249 -783.506206 -390.962762
-2090.325644 -783.834955 -388.990269
-2090.291039 -784.163704 -387.017777
-2090.256434 -784.492453 -385.045284
-2090.221828 -784.821201 -383.072792
-2090.187223 -785.149950 -381.100299
-2090.152618 -785.478699 -379.127807
-2090.118013 -785.807448 -377.155314
-2090.083408 -786.136196 -375.182822
-2090.048803 -786.464945 -373.210329
-2090.014198 -786.793694 -371.237837
-2089.979593 -787.122443 -369.265344
-2089.944987 -787.451191 -367.292852
-2089.910382 -787.779940 -365.320359
-2089.875777 -788.108689 -363.347867
-2089.841172 -788.437438 -361.375374
-2089.806567 -788.766186 -359.402881
-2089.771962 -789.094935 -357.430389
-2089.737357 -789.423684 -355.457896
-2089.702751 -789.752433 -353.485404
-2089.668146 -790.081181 -351.512911
-2089.633541 -790.409930 -349.540419
-2089.598936 -790.738679 -347.567926
-2089.564331 -791.067428 -345.595434
-2089.529726 -791.396176 -343.622941
-2089.495121 -791.724925 -341.650449
-2089.460516 -792.053674 -339.677956
-2089.425910 -792.382423 -337.705464
-2089.391305 -792.711171 -335.732971
-2089.356700 -793.039920 -333.760479
-2089.322095 -793.368669 -331.787986
-2089.287490 -793.697418 -329.815494
-2089.252885 -794.026166 -327.843001
-2089.218280 -794.354915 -325.870509
-2089.183674 -794.683664 -323.898016
-2089.149069 -795.012413 -321.925524
-2089.114464 -795.341161 -319.953031
-2089.079859 -795.669910 -317.980539
-2089.045254 -795.998659 -316.008046
-2089.010649 -796.327408 -314.035554
-2088.976044 -796.656157 -312.063061
-2088.941439 -796.984905 -310.090568
-2088.906833 -797.313654 -308.118076
-2088.872228 -797.642403 -306.145583
-2088.837623 -797.971152 -304.173091
-2088.803018 -798.299900 -302.200598
-2088.768413 -798.628649 -300.228106
-2088.733808 -798.957398 -298.255613
-2088.699203 -799.286147 -296.283121
-2088.664597 -799.614895 -294.310628
-2088.629992 -799.943644 -292.338136
-2088.595387 -800.272393 -290.365643
-2088.560782 -800.601142 -288.393151
-2088.526177 -800.929890 -286.420658
-2088.491572 -801.258639 -284.448166
-2088.456967 -801.587388 -282.475673
-2088.422362 -801.916137 -280.503181
-2088.387756 -802.244885 -278.530688
-2088.353151 -802.573634 -276.558196
-2088.318546 -802.902383 -274.585703
-2088.283941 -803.231132 -272.613211
-2088.249336 -803.559880 -270.640718
-2088.214731 -803.888629 -268.668226
-2088.180126 -804.217378 -266.695733
-2088.145521 -804.546127 -264.723241
-2088.110915 -804.874875 -262.750748
-2088.076310 -805.203624 -260.778255
-2088.041705 -805.532373 -258.805763
-2088.007100 -805.861122 -256.833270
-2087.972495 -806.189870 -254.860778
-2087.937890 -806.518619 -252.888285
-2087.903285 -806.847368 -250.915793
-2087.868679 -807.176117 -248.943300
-2087.834074 -807.504865 -246.970808
-2087.799469 -807.833614 -244.998315
-2087.764864 -808.162363 -243.025823
-2087.730259 -808.491112 -241.053330
-2087.695654 -808.819860 -239.080838
-2087.661049 -809.148609 -237.108345
-2087.626444 -809.477358 -235.135853
-2087.591838 -809.806107 -233.163360
-2087.557233 -810.134855 -231.190868
-2087.522628 -810.463604 -229.218375
-2087.488023 -810.792353 -227.245883
-2087.453418 -811.121102 -225.273390
-2087.418813 -811.449850 -223.300898
-2087.384208 -811.778599 -221.328405
-2087.349602 -812.107348 -219.355913
-2087.314997 -812.436097 -217.383420
-2087.280392 -812.764845 -215.410928
-2087.245787 -813.093594 -213.438435
-2087.211182 -813.422343 -211.465942
-2087.176577 -813.751092 -209.493450
-2087.141972 -814.079840 -207.520957
-2087.107367 -814.408589 -205.548465
-2087.072761 -814.737338 -203.575972
-2087.038156 -815.066087 -201.603480
-2087.003551 -815.394835 -199.630987
-2086.968946 -815.723584 -197.658495
-2086.934341 -816.052333 -195.686002
-2086.899736 -816.381082 -193.713510
-2086.865131 -816.709830 -191.741017
-2086.830525 -817.038579 -189.768525
-2086.795920 -817.367328 -187.796032
-2086.761315 -817.696077 -185.823540
-2086.726710 -818.024825 -183.851047
-2086.692105 -818.353574 -181.878555
-2086.657500 -818.682323 -179.906062
-2086.622895 -819.011072 -177.933570
-2086.588290 -819.339820 -175.961077
-2086.553684 -819.668569 -173.988585
-2086.519079 -819.997318 -172.016092
-2086.484474 -820.326067 -170.043600
-2086.449869 -820.654815 -168.071107
-2086.415264 -820.983564 -166.098614
-2086.380659 -821.312313 -164.126122
-2086.346054 -821.641062 -162.153629
-2086.311449 -821.969811 -160.181137
-2086.276843 -822.298559 -158.208644
-2086.242238 -822.627308 -156.236152
-2086.207633 -822.956057 -154.263659
-2086.173028 -823.284806 -152.291167
-2086.138423 -823.613554 -150.318674
-2086.103818 -823.942303 -148.346182
-2086.069213 -824.271052 -146.373689
-2086.034607 -824.599801 -144.401197
-2086.000002 -824.928549 -142.428704
-2085.965397 -825.257298 -140.456212
-2085.930792 -825.586047 -138.483719
-2085.896187 -825.914796 -136.511227
-2085.861582 -826.243544 -134.538734
-2085.826977 -826.572293 -132.566242
-2085.792372 -826.901042 -130.593749
-2085.757766 -827.229791 -128.621257
-2085.723161 -827.558539 -126.648764
-2085.688556 -827.887288 -124.676272
-2085.653951 -828.216037 -122.703779
-2085.619346 -828.544786 -120.731287
-2085.584741 -828.873534 -118.758794
-2085.550136 -829.202283 -116.786301
-2085.515530 -829.531032 -114.813809
-2085.480925 -829.859781 -112.841316
-2085.446320 -830.188529 -110.868824
-2085.411715 -830.517278 -108.896331
-2085.377110 -830.846027 -106.923839
-2085.342505 -831.174776 -104.951346
-2085.307900 -831.503524 -102.978854
-2085.273295 -831.832273 -101.006361
-2085.238689 -832.161022 -99.033869
-2085.204084 -832.489771 -97.061376
-2085.169479 -832.818519 -95.088884
-2085.134874 -833.147268 -93.116391
-2085.100269 -833.476017 -91.143899
-2085.065664 -833.804766 -89.171406
-2085.031059 -834.133514 -87.198914
-2084.996454 -834.462263 -85.226421
-2084.961848 -834.791012 -83.253929
-2084.927243 -835.119761 -81.281436
-2084.892638 -835.448509 -79.308944
-2084.858033 -835.777258 -77.336451
-2084.823428 -836.106007 -75.363959
-2084.788823 -836.434756 -73.391466
-2084.754218 -836.763504 -71.418974
-2084.719612 -837.092253 -69.446481
-2084.685007 -837.421002 -67.473988
-2084.650402 -837.749751 -65.501496
-2084.615797 -838.078499 -63.529003
-2084.581192 -838.407248 -61.556511
-2084.546587 -838.735997 -59.584018
-2084.511982 -839.064746 -57.611526
-2084.477377 -839.393494 -55.639033
-2084.442771 -839.722243 -53.666541
-2084.408166 -840.050992 -51.694048
-2084.373561 -840.379741 -49.721556
-2084.338956 -840.708489 -47.749063
-2084.304351 -841.037238 -45.776571
-2084.269746 -841.365987 -43.804078
-2084.235141 -841.694736 -41.831586
-2084.200535 -842.023484 -39.859093
-2084.165930 -842.352233 -37.886601
-2084.131325 -842.680982 -35.914108
-2084.096720 -843.009731 -33.941616
-2084.062115 -843.338479 -31.969123
-2084.027510 -843.667228 -29.996631
-2083.992905 -843.995977 -28.024138
-2083.958300 -844.324726 -26.051646
-2083.923694 -844.653474 -24.079153
-2083.889089 -844.982223 -22.106661
-2083.854484 -845.310972 -20.134168
-2083.819879 -845.639721 -18.161675
-2083.785274 -845.968470 -16.189183
-2083.750669 -846.297218 -14.216690
-2083.716064 -846.625967 -12.244198
-2083.681458 -846.954716 -10.271705
-2083.646853 -847.283465 -8.299213
-2083.612248 -847.612213 -6.326720
-2083.571429 -848.000000 -4.000000
-2083.742229 -849.992693 -4.000000
-2083.913029 -851.985387 -4.000000
-2084.083830 -853.978080 -4.000000
-2084.254630 -855.970774 -4.000000
-2084.425430 -857.963467 -4.000000
-2084.596231 -859.956161 -4.000000
-2084.767031 -861.948854 -4.000000
-2084.937831 -863.941548 -4.000000
-2085.108632 -865.934241 -4.000000
-2085.279432 -867.926935 -4.000000
-2085.450232 -869.919628 -4.000000
-2085.621033 -871.912322 -4.000000
-2085.791833 -873.905015 -4.000000
-2085.962633 -875.897709 -4.000000
-2086.133434 -877.890402 -4.000000
-2086.304234 -879.883095 -4.000000
-2086.475034 -881.875789 -4.000000
-2086.645834 -883.868482 -4.000000
-2086.816635 -885.861176 -4.000000
-2086.987435 -887.853869 -4.000000
-2087.158235 -889.846563 -4.000000
-2087.329036 -891.839256 -4.000000
-2087.499836 -893.831950 -4.000000
-2087.670636 -895.824643 -4.000000
-2087.841437 -897.817337 -4.000000
-2088.012237 -899.810030 -4.000000
-2088.183037 -901.802724 -4.000000
-2088.353838 -903.795417 -4.000000
-2088.524638 -905.788111 -4.000000
-2088.695438 -907.780804 -4.000000
-2088.866239 -909.773497 -4.000000
-2089.037039 -911.766191 -4.000000
-2089.207839 -913.758884 -4.000000
-2089.378640 -915.751578 -4.000000
-2089.549440 -917.744271 -4.000000
-2089.720240 -919.736965 -4.000000
-2089.891041 -921.729658 -4.000000
-2090.061841 -923.722352 -4.000000
-2090.232641 -925.715045 -4.000000
-2090.403442 -927.707739 -4.000000
-2090.574242 -929.700432 -4.000000
-2090.745042 -931.693126 -4.000000
-2090.915843 -933.685819 -4.000000
-2091.086643 -935.678512 -4.000000
-2091.257443 -937.671206 -4.000000
-2091.428244 -939.663899 -4.000000
-2091.599044 -941.656593 -4.000000
-2091.769844 -943.649286 -4.000000
-2091.940645 -945.641980 -4.000000
-2092.111445 -947.634673 -4.000000
-2092.282245 -949.627367 -4.000000
-2092.453046 -951.620060 -4.000000
-2092.623846 -953.612754 -4.000000
-2092.794646 -955.605447 -4.000000
-2092.965447 -957.598141 -4.000000
-2093.136247 -959.590834 -4.000000
-2093.307047 -961.583528 -4.000000
-2093.477848 -963.576221 -4.000000
-2093.648648 -965.568914 -4.000000
-2093.819448 -967.561608 -4.000000
-2093.990249 -969.554301 -4.000000
-2094.161049 -971.546995 -4.000000
-2094.331849 -973.539688 -4.000000
-2094.502650 -975.532382 -4.000000
-2094.673450 -977.525075 -4.000000
-2094.844250 -979.517769 -4.000000
-2095.015051 -981.510462 -4.000000
-2095.185851 -983.503156 -4.000000
-2095.356651 -985.495849 -4.000000
-2095.527452 -987.488543 -4.000000
-2095.698252 -989.481236 -4.000000
-2095.869052 -991.473930 -4.000000
-2096.039853 -993.466623 -4.000000
-2096.210653 -995.459316 -4.000000
-2096.381453 -997.452010 -4.000000
-2096.552254 -999.444703 -4.000000
-2096.723054 -1001.437397 -4.000000
-2096.893854 -1003.430090 -4.000000
-2097.064655 -1005.422784 -4.000000
-2097.235455 -1007.415477 -4.000000
-2097.406255 -1009.408171 -4.000000
-2097.577056 -1011.400864 -4.000000
-2097.747856 -1013.393558 -4.000000
-2097.918656 -1015.386251 -4.000000
-2098.089457 -1017.378945 -4.000000
-2098.260257 -1019.371638 -4.000000
-2098.431057 -1021.364332 -4.000000
-2098.601857 -1023.357025 -4.000000
-2098.772658 -1025.349718 -4.000000
-2098.943458 -1027.342412 -4.000000
-2099.114258 -1029.335105 -4.000000
-2099.285059 -1031.327799 -4.000000
-2099.455859 -1033.320492 -4.000000
-2099.626659 -1035.313186 -4.000000
-2099.797460 -1037.305879 -4.000000
-2099.968260 -1039.298573 -4.000000
-2100.139060 -1041.291266 -4.000000
-2100.309861 -1043.283960 -4.000000
-2100.480661 -1045.276653 -4.000000
-2100.651461 -1047.269347 -4.000000
-2100.822262 -1049.262040 -4.000000
-2100.993062 -1051.254733 -4.000000
-2101.163862 -1053.247427 -4.000000
-2101.334663 -1055.240120 -4.000000
-2101.505463 -1057.232814 -4.000000
-2101.676263 -1059.225507 -4.000000
-2101.847064 -1061.218201 -4.000000
-2102.017864 -1063.210894 -4.000000
-2102.188664 -1065.203588 -4.000000
-2102.359465 -1067.196281 -4.000000
-2102.530265 -1069.188975 -4.000000
-2102.701065 -1071.181668 -4.000000
-2102.871866 -1073.174362 -4.000000
-2103.042666 -1075.167055 -4.000000
-2103.213466 -1077.159749 -4.000000
-2103.384267 -1079.152442 -4.000000
-2103.555067 -1081.145135 -4.000000
-2103.725867 -1083.137829 -4.000000
-2103.896668 -1085.130522 -4.000000
-2104.067468 -1087.123216 -4.000000
-2104.238268 -1089.115909 -4.000000
-2104.409069 -1091.108603 -4.000000
-2104.579869 -1093.101296 -4.000000
-2104.750669 -1095.093990 -4.000000
-2104.921470 -1097.086683 -4.000000
-2105.092270 -1099.079377 -4.000000
-2105.263070 -1101.072070 -4.000000
-2105.433871 -1103.064764 -4.000000
-2105.604671 -1105.057457 -4.000000
-2105.775471 -1107.050151 -4.000000
-2105.946272 -1109.042844 -4.000000
-2106.117072 -1111.035537 -4.000000
-2106.287872 -1113.028231 -4.000000
-2106.458673 -1115.020924 -4.000000
-2106.629473 -1117.013618 -4.000000
-2106.800273 -1119.006311 -4.000000
-2106.971074 -1120.999005 -4.000000
-2107.141874 -1122.991698 -4.000000
-2107.312674 -1124.984392 -4.000000
-2107.483475 -1126.977085 -4.000000
-2107.654275 -1128.969779 -4.000000
-2107.825075 -1130.962472 -4.000000
-2107.995876 -1132.955166 -4.000000
-2108.166676 -1134.947859 -4.000000
-2108.337476 -1136.940553 -4.000000
-2108.508277 -1138.933246 -4.000000
-2108.679077 -1140.925939 -4.000000
-2108.849877 -1142.918633 -4.000000
-2109.020678 -1144.911326 -4.000000
-2109.191478 -1146.904020 -4.000000
-2109.362278 -1148.896713 -4.000000
-2109.533079 -1150.889407 -4.000000
-2109.703879 -1152.882100 -4.000000
-2109.874679 -1154.874794 -4.000000
-2110.045480 -1156.867487 -4.000000
-2110.216280 -1158.860181 -4.000000
-2110.387080 -1160.852874 -4.000000
-2110.557881 -1162.845568 -4.000000
-2110.728681 -1164.838261 -4.000000
-2110.899481 -1166.830954 -4.000000
-2111.070281 -1168.823648 -4.000000
-2111.241082 -1170.816341 -4.000000
-2111.411882 -1172.809035 -4.000000
-2111.582682 -1174.801728 -4.000000
-2111.753483 -1176.794422 -4.000000
-2111.924283 -1178.787115 -4.000000
-2112.095083 -1180.779809 -4.000000
-2112.265884 -1182.772502 -4.000000
-2112.436684 -1184.765196 -4.000000
-2112.607484 -1186.757889 -4.000000
-2112.778285 -1188.750583 -4.000000
-2112.949085 -1190.743276 -4.000000
-2113.119885 -1192.735970 -4.000000
-2113.290686 -1194.728663 -4.000000
-2113.461486 -1196.721356 -4.000000
-2113.632286 -1198.714050 -4.000000
-2113.803087 -1200.706743 -4.000000
-2113.973887 -1202.699437 -4.000000
-2114.144687 -1204.692130 -4.000000
-2114.315488 -1206.684824 -4.000000
-2114.486288 -1208.677517 -4.000000
-2114.657088 -1210.670211 -4.000000
-2114.827889 -1212.662904 -4.000000
-2114.998689 -1214.655598 -4.000000
-2115.169489 -1216.648291 -4.000000
-2115.340290 -1218.640985 -4.000000
-2115.511090 -1220.633678 -4.000000
-2115.681890 -1222.626372 -4.000000
-2115.852691 -1224.619065 -4.000000
-2116.023491 -1226.611758 -4.000000
-2116.194291 -1228.604452 -4.000000
-2116.365092 -1230.597145 -4.000000
-2116.535892 -1232.589839 -4.000000
-2116.706692 -1234.582532 -4.000000
-2116.877493 -1236.575226 -4.000000
-2117.048293 -1238.567919 -4.000000
-2117.219093 -1240.560613 -4.000000
-2117.389894 -1242.553306 -4.000000
-2117.560694 -1244.546000 -4.000000
-2117.731494 -1246.538693 -4.000000
-2117.902295 -1248.531387 -4.000000
-2118.073095 -1250.524080 -4.000000
-2118.243895 -1252.516774 -4.000000
-2118.414696 -1254.509467 -4.000000
-2118.585496 -1256.502160 -4.000000
-2118.756296 -1258.494854 -4.000000
-2118.927097 -1260.487547 -4.000000
-2119.097897 -1262.480241 -4.000000
-2119.268697 -1264.472934 -4.000000
-2119.439498 -1266.465628 -4.000000
-2119.610298 -1268.458321 -4.000000
-2119.781098 -1270.451015 -4.000000
-2119.951899 -1272.443708 -4.000000
-2120.122699 -1274.436402 -4.000000
-2120.293499 -1276.429095 -4.000000
-2120.464300 -1278.421789 -4.000000
-2120.635100 -1280.414482 -4.000000
-2120.805900 -1282.407175 -4.000000
-2120.976701 -1284.399869 -4.000000
-2121.147501 -1286.392562 -4.000000
-2121.318301 -1288.385256 -4.000000
-2121.489102 -1290.377949 -4.000000
-2121.659902 -1292.370643 -4.000000
-2121.830702 -1294.363336 -4.000000
-2122.001503 -1296.356030 -4.000000
-2122.172303 -1298.348723 -4.000000
-2122.343103 -1300.341417 -4.000000
-2122.513904 -1302.334110 -4.000000
-2122.684704 -1304.326804 -4.000000
-2122.855504 -1306.319497 -4.000000
-2123.026304 -1308.312191 -4.000000
-2123.197105 -1310.304884 -4.000000
-2123.367905 -1312.297577 -4.000000
-2123.538705 -1314.290271 -4.000000
-2123.709506 -1316.282964 -4.000000
-2123.880306 -1318.275658 -4.000000
-2124.051106 -1320.268351 -4.000000
-2124.221907 -1322.261045 -4.000000
-2124.392707 -1324.253738 -4.000000
-2124.563507 -1326.246432 -4.000000
-2124.734308 -1328.239125 -4.000000
-2124.905108 -1330.231819 -4.000000
-2125.075908 -1332.224512 -4.000000
-2125.246709 -1334.217206 -4.000000
-2125.417509 -1336.209899 -4.000000
-2125.588309 -1338.202593 -4.000000
-2125.759110 -1340.195286 -4.000000
-2125.929910 -1342.187979 -4.000000
-2126.100710 -1344.180673 -4.000000
-2126.271511 -1346.173366 -4.000000
-2126.442311 -1348.166060 -4.000000
-2126.613111 -1350.158753 -4.000000
-2126.783912 -1352.151447 -4.000000
-2126.954712 -1354.144140 -4.000000
-2127.125512 -1356.136834 -4.000000
-2127.296313 -1358.129527 -4.000000
-2127.467113 -1360.122221 -4.000000
-2127.637913 -1362.114914 -4.000000
-2127.808714 -1364.107608 -4.000000
-2127.979514 -1366.100301 -4.000000
-2128.150314 -1368.092995 -4.000000
-2128.321115 -1370.085688 -4.000000
-2128.491915 -1372.078381 -4.000000
-2128.662715 -1374.071075 -4.000000
-2128.833516 -1376.063768 -4.000000
-2129.004316 -1378.056462 -4.000000
-2129.175116 -1380.049155 -4.000000
-2129.345917 -1382.041849 -4.000000
-2129.516717 -1384.034542 -4.000000
-2129.687517 -1386.027236 -4.000000
-2129.858318 -1388.019929 -4.000000
-2130.029118 -1390.012623 -4.000000
-2130.199918 -1392.005316 -4.000000
-2130.370719 -1393.998010 -4.000000
-2130.541519 -1395.990703 -4.000000
-2130.712319 -1397.983396 -4.000000
-2130.883120 -1399.976090 -4.000000
-2131.053920 -1401.968783 -4.000000
-2131.224720 -1403.961477 -4.000000
-2131.395521 -1405.954170 -4.000000
-2131.566321 -1407.946864 -4.000000
-2131.737121 -1409.939557 -4.000000
-2131.907922 -1411.932251 -4.000000
-2132.078722 -1413.924944 -4.000000
-2132.249522 -1415.917638 -4.000000
-2132.420323 -1417.910331 -4.000000
-2132.591123 -1419.903025 -4.000000
-2132.761923 -1421.895718 -4.000000
-2132.932724 -1423.888412 -4.000000
-2133.103524 -1425.881105 -4.000000
-2133.274324 -1427.873798 -4.000000
-2133.445125 -1429.866492 -4.000000
-2133.615925 -1431.859185 -4.000000
-2133.786725 -1433.851879 -4.000000
-2133.957526 -1435.844572 -4.000000
-2134.128326 -1437.837266 -4.000000
-2134.299126 -1439.829959 -4.000000
-2134.469927 -1441.822653 -4.000000
-2134.640727 -1443.815346 -4.000000
-2134.811527 -1445.808040 -4.000000
-2134.982328 -1447.800733 -4.000000
-2135.153128 -1449.793427 -4.000000
-2135.323928 -1451.786120 -4.000000
-2135.494728 -1453.778814 -4.000000
-2135.665529 -1455.771507 -4.000000
-2135.836329 -1457.764200 -4.000000
-2136.007129 -1459.756894 -4.000000
-2136.177930 -1461.749587 -4.000000
-2136.348730 -1463.742281 -4.000000
-2136.519530 -1465.734974 -4.000000
-2136.690331 -1467.727668 -4.000000
-2136.861131 -1469.720361 -4.000000
-2137.031931 -1471.713055 -4.000000
-2137.202732 -1473.705748 -4.000000
-2137.373532 -1475.698442 -4.000000
-2137.544332 -1477.691135 -4.000000
-2137.715133 -1479.683829 -4.000000
-2137.885933 -1481.676522 -4.000000
-2138.056733 -1483.669216 -4.000000
-2138.227534 -1485.661909 -4.000000
-2138.398334 -1487.654602 -4.000000
-2138.569134 -1489.647296 -4.000000
-2138.739935 -1491.639989 -4.000000
-2138.910735 -1493.632683 -4.000000
-2139.081535 -1495.625376 -4.000000
-2139.252336 -1497.618070 -4.000000
-2139.423136 -1499.610763 -4.000000
-2139.593936 -1501.603457 -4.000000
-2139.764737 -1503.596150 -4.000000
-2139.935537 -1505.588844 -4.000000
-2140.106337 -1507.581537 -4.000000
-2140.277138 -1509.574231 -4.000000
-2140.447938 -1511.566924 -4.000000
-2140.618738 -1513.559618 -4.000000
-2140.789539 -1515.552311 -4.000000
-2140.960339 -1517.545004 -4.000000
-2141.131139 -1519.537698 -4.000000
-2141.301940 -1521.530391 -4.000000
-2141.472740 -1523.523085 -4.000000
-2141.643540 -1525.515778 -4.000000
-2141.814341 -1527.508472 -4.000000
-2141.985141 -1529.501165 -4.000000
-2142.155941 -1531.493859 -4.000000
-2142.326742 -1533.486552 -4.000000
-2142.497542 -1535.479246 -4.000000
-2142.668342 -1537.471939 -4.000000
-2142.839143 -1539.464633 -4.000000
-2143.009943 -1541.457326 -4.000000
-2143.180743 -1543.450019 -4.000000
-2143.351544 -1545.442713 -4.000000
-2143.522344 -1547.435406 -4.000000
-2143.693144 -1549.428100 -4.000000
-2143.863945 -1551.420793 -4.000000
-2144.034745 -1553.413487 -4.000000
-2144.205545 -1555.406180 -4.000000
-2144.376346 -1557.398874 -4.000000
-2144.547146 -1559.391567 -4.000000
-2144.717946 -1561.384261 -4.000000
-2144.888747 -1563.376954 -4.000000
-2145.059547 -1565.369648 -4.000000
-2145.230347 -1567.362341 -4.000000
-2145.401148 -1569.355035 -4.000000
-2145.571948 -1571.347728 -4.000000
-2145.742748 -1573.340421 -4.000000
-2145.913549 -1575.333115 -4.000000
-2146.084349 -1577.325808 -4.000000
-2146.255149 -1579.318502 -4.000000
-2146.425950 -1581.311195 -4.000000
-2146.596750 -1583.303889 -4.000000
-2146.767550 -1585.296582 -4.000000
-2146.938351 -1587.289276 -4.000000
-2147.109151 -1589.281969 -4.000000
-2147.279951 -1591.274663 -4.000000
-2147.450751 -1593.267356 -4.000000
-2147.621552 -1595.260050 -4.000000
-2147.792352 -1597.252743 -4.000000
-2147.963152 -1599.245437 -4.000000
-2148.133953 -1601.238130 -4.000000
-2148.304753 -1603.230823 -4.000000
-2148.475553 -1605.223517 -4.000000
-2148.646354 -1607.216210 -4.000000
