-1904.172079 1.285293 582.598542
-1905.875427 1.152564 583.638247
-1907.578775 1.019836 584.677953
-1909.282123 0.887107 585.717659
-1910.985471 0.754379 586.757365
-1912.688819 0.621650 587.797071
-1914.392167 0.488922 588.836777
-1916.095515 0.356194 589.876483
-1917.798863 0.223465 590.916189
-1919.502211 0.090737 591.955895
-1921.205559 -0.041992 592.995601
-1922.908907 -0.174720 594.035307
-1924.612256 -0.307448 595.075013
-1926.315604 -0.440177 596.114719
-1928.018952 -0.572905 597.154425
-1929.722300 -0.705634 598.194131
-1931.425648 -0.838362 599.233837
-1933.128996 -0.971091 600.273543
-1934.832344 -1.103819 601.313249
-1936.535692 -1.236547 602.352955
-1938.239040 -1.369276 603.392661
-1939.942388 -1.502004 604.432367
-1941.645736 -1.634733 605.472073
-1943.349084 -1.767461 606.511779
-1945.052432 -1.900190 607.551485
-1946.755781 -2.032918 608.591191
-1948.459129 -2.165646 609.630897
-1950.162477 -2.298375 610.670603
-1951.865825 -2.431103 611.710309
-1953.569173 -2.563832 612.750015
-1955.272521 -2.696560 613.789721
-1956.975869 -2.829288 614.829427
-1958.679217 -2.962017 615.869132
-1960.382565 -3.094745 616.908838
-1962.085913 -3.227474 617.948544
-1963.789261 -3.360202 618.988250
-1965.492609 -3.492931 620.027956
-1967.195957 -3.625659 621.067662
-1968.899305 -3.758387 622.107368
-1972.000000 -4.000000 624.000000
-1973.874428 -3.609494 624.577949
-1975.748856 -3.218988 625.155897
-1977.623284 -2.828482 625.733846
-1979.497712 -2.437977 626.311795
-1981.372140 -2.047471 626.889743
-1983.246568 -1.656965 627.467692
-1985.120996 -1.266459 628.045641
-1986.995424 -0.875953 628.623589
-1988.869853 -0.485447 629.201538
-1990.744281 -0.094942 629.779487
-1992.618709 0.295564 630.357435
-1994.493137 0.686070 630.935384
-1996.367565 1.076576 631.513332
-1998.241993 1.467082 632.091281
-2000.116421 1.857588 632.669230
-2001.990849 2.248094 633.247178
-2003.865277 2.638599 633.825127
-2005.739705 3.029105 634.403076
-2007.614133 3.419611 634.981024
-2009.488561 3.810117 635.558973
-2011.362989 4.200623 636.136922
-2013.237417 4.591129 636.714870
-2015.111845 4.981634 637.292819
-2016.986273 5.372140 637.870768
-2018.860701 5.762646 638.448716
-2020.735129 6.153152 639.026665
-2022.609558 6.543658 639.604614
-2024.483986 6.934164 640.182562
-2026.358414 7.324670 640.760511
-2028.232842 7.715175 641.338460
-2030.107270 8.105681 641.916408
-2031.981698 8.496187 642.494357
-2033.856126 8.886693 643.072305
-2035.730554 9.277199 643.650254
-2037.604982 9.667705 644.228203
-2039.479410 10.058210 644.806151
-2041.353838 10.448716 645.384100
-2043.228266 10.839222 645.962049
-2045.102694 11.229728 646.539997
-2046.977122 11.620234 647.117946
-2048.851550 12.010740 647.695895
-2050.725978 12.401246 648.273843
-2052.600406 12.791751 648.851792
-2054.474835 13.182257 649.429741
-2056.349263 13.572763 650.007689
-2058.223691 13.963269 650.585638
-2060.098119 14.353775 651.163587
-2061.972547 14.744281 651.741535
-2063.846975 15.134786 652.319484
-2065.721403 15.525292 652.897433
-2067.595831 15.915798 653.475381
-2069.470259 16.306304 654.053330
-2071.344687 16.696810 654.631279
-2073.219115 17.087316 655.209227
-2075.093543 17.477821 655.787176
-2076.967971 17.868327 656.365124
-2078.842399 18.258833 656.943073
-2080.716827 18.649339 657.521022
-2082.591255 19.039845 658.098970
-2084.465683 19.430351 658.676919
-2086.340111 19.820857 659.254868
-2088.214540 20.211362 659.832816
-2090.088968 20.601868 660.410765
-2091.963396 20.992374 660.988714
-2093.837824 21.382880 661.566662
-2095.712252 21.773386 662.144611
-2097.586680 22.163892 662.722560
-2099.461108 22.554397 663.300508
-2101.335536 22.944903 663.878457
-2103.209964 23.335409 664.456406
-2105.084392 23.725915 665.034354
-2106.958820 24.116421 665.612303
-2108.833248 24.506927 666.190252
-2110.707676 24.897433 666.768200
-2112.582104 25.287938 667.346149
-2114.456532 25.678444 667.924097
-2116.330960 26.068950 668.502046
-2118.205388 26.459456 669.079995
-2120.079817 26.849962 669.657943
-2121.954245 27.240468 670.235892
-2123.828673 27.630973 670.813841
-2125.703101 28.021479 671.391789
-2127.577529 28.411985 671.969738
-2129.451957 28.802491 672.547687
-2131.326385 29.192997 673.125635
-2133.200813 29.583503 673.703584
-2135.075241 29.974009 674.281533
-2136.949669 30.364514 674.859481
-2138.824097 30.755020 675.437430
-2140.698525 31.145526 676.015379
-2142.572953 31.536032 676.593327
-2144.447381 31.926538 677.171276
-2146.321809 32.317044 677.749225
-2148.196237 32.707549 678.327173
-2150.070665 33.098055 678.905122
-2151.945093 33.488561 679.483070
-2153.819522 33.879067 680.061019
-2155.693950 34.269573 680.638968
-2157.568378 34.660079 681.216916
-2159.442806 35.050585 681.794865
-2161.317234 35.441090 682.372814
-2163.191662 35.831596 682.950762
-2165.066090 36.222102 683.528711
-2166.940518 36.612608 684.106660
-2168.814946 37.003114 684.684608
-2170.689374 37.393620 685.262557
-2172.563802 37.784125 685.840506
-2174.438230 38.174631 686.418454
-2176.312658 38.565137 686.996403
-2178.187086 38.955643 687.574352
-2180.061514 39.346149 688.152300
-2181.935942 39.736655 688.730249
-2183.810370 40.127161 689.308198
-2185.684799 40.517666 689.886146
-2187.559227 40.908172 690.464095
-2189.433655 41.298678 691.042044
-2191.308083 41.689184 691.619992
-2193.182511 42.079690 692.197941
-2195.056939 42.470196 692.775889
-2196.931367 42.860701 693.353838
-2198.805795 43.251207 693.931787
-2200.680223 43.641713 694.509735
-2202.554651 44.032219 695.087684
-2204.429079 44.422725 695.665633
-2206.303507 44.813231 696.243581
-2208.177935 45.203737 696.821530
-2210.052363 45.594242 697.399479
-2212.000000 46.000000 698.000000
-2212.588172 44.088442 698.000000
-2213.176343 42.176884 698.000000
-2213.764515 40.265326 698.000000
-2214.352687 38.353768 698.000000
-2214.940858 36.442210 698.000000
-2215.529030 34.530652 698.000000
-2216.117202 32.619094 698.000000
-2216.705374 30.707536 698.000000
-2217.293545 28.795978 698.000000
-2217.881717 26.884420 698.000000
-2218.469889 24.972862 698.000000
-2219.058060 23.061304 698.000000
-2219.646232 21.149746 698.000000
-2220.234404 19.238188 698.000000
-2220.822575 17.326630 698.000000
-2221.410747 15.415072 698.000000
-2221.998919 13.503514 698.000000
-2222.587091 11.591956 698.000000
-2223.175262 9.680398 698.000000
-2223.763434 7.768840 698.000000
-2224.351606 5.857282 698.000000
-2224.939777 3.945724 698.000000
-2225.527949 2.034166 698.000000
-2226.116121 0.122608 698.000000
-2226.704292 -1.788950 698.000000
-2227.292464 -3.700508 698.000000
-2228.000000 -6.000000 698.000000
-2229.859678 -6.612333 697.591778
-2231.719356 -7.224666 697.183556
-2233.579035 -7.836999 696.775334
-2235.438713 -8.449332 696.367112
-2237.298391 -9.061665 695.958890
-2239.158069 -9.673998 695.550668
-2241.017747 -10.286331 695.142446
-2242.877426 -10.898665 694.734224
-2244.737104 -11.510998 694.326002
-2246.596782 -12.123331 693.917780
-2248.456460 -12.735664 693.509558
-2250.316138 -13.347997 693.101335
-2252.175817 -13.960330 692.693113
-2254.035495 -14.572663 692.284891
-2255.895173 -15.184996 691.876669
-2257.754851 -15.797329 691.468447
-2259.614529 -16.409662 691.060225
-2261.474207 -17.021995 690.652003
-2263.333886 -17.634328 690.243781
-2265.193564 -18.246661 689.835559
-2267.053242 -18.858994 689.427337
-2268.912920 -19.471327 689.019115
-2270.772598 -20.083660 688.610893
-2272.632277 -20.695994 688.202671
-2274.491955 -21.308327 687.794449
-2276.351633 -21.920660 687.386227
-2278.211311 -22.532993 686.978005
-2280.070989 -23.145326 686.569783
-2281.930668 -23.757659 686.161561
-2283.790346 -24.369992 685.753339
-2285.650024 -24.982325 685.345117
-2287.509702 -25.594658 684.936895
-2289.369380 -26.206991 684.528673
-2291.229059 -26.819324 684.120451
-2293.088737 -27.431657 683.712229
-2294.948415 -28.043990 683.304006
-2296.808093 -28.656323 682.895784
-2298.667771 -29.268656 682.487562
-2300.527450 -29.880989 682.079340
-2302.387128 -30.493323 681.671118
-2304.246806 -31.105656 681.262896
-2306.106484 -31.717989 680.854674
-2307.966162 -32.330322 680.446452
-2309.825841 -32.942655 680.038230
-2311.685519 -33.554988 679.630008
-2313.545197 -34.167321 679.221786
-2315.404875 -34.779654 678.813564
-2317.264553 -35.391987 678.405342
-2319.124231 -36.004320 677.997120
-2320.983910 -36.616653 677.588898
-2322.843588 -37.228986 677.180676
-2324.703266 -37.841319 676.772454
-2326.562944 -38.453652 676.364232
-2328.422622 -39.065985 675.956010
-2330.282301 -39.678319 675.547788
-2332.141979 -40.290652 675.139566
-2334.001657 -40.902985 674.731344
-2335.861335 -41.515318 674.323122
-2337.721013 -42.127651 673.914899
-2339.580692 -42.739984 673.506677
-2341.440370 -43.352317 673.098455
-2343.300048 -43.964650 672.690233
-2345.159726 -44.576983 672.282011
-2347.019404 -45.189316 671.873789
-2348.879083 -45.801649 671.465567
-2350.738761 -46.413982 671.057345
-2352.598439 -47.026315 670.649123
-2354.458117 -47.638648 670.240901
-2356.317795 -48.250981 669.832679
-2358.177474 -48.863314 669.424457
-2360.037152 -49.475648 669.016235
-2361.896830 -50.087981 668.608013
-2363.756508 -50.700314 668.199791
-2365.616186 -51.312647 667.791569
-2367.475865 -51.924980 667.383347
-2369.335543 -52.537313 666.975125
-2371.195221 -53.149646 666.566903
-2373.054899 -53.761979 666.158681
-2374.914577 -54.374312 665.750459
-2376.774255 -54.986645 665.342237
-2378.633934 -55.598978 664.934015
-2380.493612 -56.211311 664.525793
-2382.353290 -56.823644 664.117570
-2384.212968 -57.435977 663.709348
-2386.072646 -58.048310 663.301126
-2387.932325 -58.660643 662.892904
-2389.792003 -59.272977 662.484682
-2391.651681 -59.885310 662.076460
-2393.511359 -60.497643 661.668238
-2395.371037 -61.109976 661.260016
-2397.230716 -61.722309 660.851794
-2399.090394 -62.334642 660.443572
-2400.950072 -62.946975 660.035350
-2402.809750 -63.559308 659.627128
-2404.669428 -64.171641 659.218906
-2406.529107 -64.783974 658.810684
-2408.388785 -65.396307 658.402462
-2410.248463 -66.008640 657.994240
-2412.108141 -66.620973 657.586018
-2413.967819 -67.233306 657.177796
-2415.827498 -67.845639 656.769574
-2417.687176 -68.457972 656.361352
-2419.546854 -69.070306 655.953130
-2421.406532 -69.682639 655.544908
-2423.266210 -70.294972 655.136686
-2425.125889 -70.907305 654.728463
-2426.985567 -71.519638 654.320241
-2428.845245 -72.131971 653.912019
-2430.704923 -72.744304 653.503797
-2432.564601 -73.356637 653.095575
-2434.424279 -73.968970 652.687353
-2436.283958 -74.581303 652.279131
-2438.143636 -75.193636 651.870909
-2440.003314 -75.805969 651.462687
-2441.862992 -76.418302 651.054465
-2443.722670 -77.030635 650.646243
-2445.582349 -77.642968 650.238021
-2447.442027 -78.255302 649.829799
-2449.301705 -78.867635 649.421577
-2451.161383 -79.479968 649.013355
-2453.021061 -80.092301 648.605133
-2454.880740 -80.704634 648.196911
-2456.740418 -81.316967 647.788689
-2458.600096 -81.929300 647.380467
-2460.459774 -82.541633 646.972245
-2462.319452 -83.153966 646.564023
-2464.179131 -83.766299 646.155801
-2466.038809 -84.378632 645.747579
-2467.898487 -84.990965 645.339357
-2469.758165 -85.603298 644.931134
-2471.617843 -86.215631 644.522912
-2473.477522 -86.827964 644.114690
-2475.337200 -87.440297 643.706468
-2477.196878 -88.052631 643.298246
-2479.056556 -88.664964 642.890024
-2480.916234 -89.277297 642.481802
-2482.775913 -89.889630 642.073580
-2484.635591 -90.501963 641.665358
-2486.495269 -91.114296 641.257136
-2488.354947 -91.726629 640.848914
-2490.214625 -92.338962 640.440692
-2492.074303 -92.951295 640.032470
-2493.933982 -93.563628 639.624248
-2495.793660 -94.175961 639.216026
-2497.653338 -94.788294 638.807804
-2499.513016 -95.400627 638.399582
-2501.372694 -96.012960 637.991360
-2503.232373 -96.625293 637.583138
-2505.092051 -97.237626 637.174916
-2506.951729 -97.849960 636.766694
-2508.811407 -98.462293 636.358472
-2510.671085 -99.074626 635.950250
-2512.530764 -99.686959 635.542028
-2514.390442 -100.299292 635.133805
-2516.250120 -100.911625 634.725583
-2518.109798 -101.523958 634.317361
-2519.969476 -102.136291 633.909139
-2521.829155 -102.748624 633.500917
-2523.688833 -103.360957 633.092695
-2525.548511 -103.973290 632.684473
-2527.408189 -104.585623 632.276251
-2529.267867 -105.197956 631.868029
-2531.127546 -105.810289 631.459807
-2532.987224 -106.422622 631.051585
-2534.846902 -107.034956 630.643363
-2536.706580 -107.647289 630.235141
-2538.566258 -108.259622 629.826919
-2540.425936 -108.871955 629.418697
-2542.285615 -109.484288 629.010475
-2544.145293 -110.096621 628.602253
-2546.004971 -110.708954 628.194031
-2547.864649 -111.321287 627.785809
-2549.724327 -111.933620 627.377587
-2551.584006 -112.545953 626.969365
-2553.443684 -113.158286 626.561143
-2556.000000 -114.000000 626.000000
-2556.683486 -115.879587 626.000000
-2557.366972 -117.759174 626.000000
-2558.050458 -119.638761 626.000000
-2558.733945 -121.518347 626.000000
-2559.417431 -123.397934 626.000000
-2560.100917 -125.277521 626.000000
-2560.784403 -127.157108 626.000000
-2561.467889 -129.036695 626.000000
-2562.151375 -130.916282 626.000000
-2562.834861 -132.795868 626.000000
-2563.518347 -134.675455 626.000000
-2564.201834 -136.555042 626.000000
-2564.885320 -138.434629 626.000000
-2565.568806 -140.314216 626.000000
-2566.252292 -142.193803 626.000000
-2566.935778 -144.073390 626.000000
-2567.619264 -145.952976 626.000000
-2568.302750 -147.832563 626.000000
-2568.986236 -149.712150 626.000000
-2569.669723 -151.591737 626.000000
-2570.353209 -153.471324 626.000000
-2571.036695 -155.350911 626.000000
-2571.720181 -157.230497 626.000000
-2572.403667 -159.110084 626.000000
-2573.087153 -160.989671 626.000000
-2573.770639 -162.869258 626.000000
-2574.454125 -164.748845 626.000000
-2575.137612 -166.628432 626.000000
-2575.821098 -168.508019 626.000000
-2576.504584 -170.387605 626.000000
-2577.188070 -172.267192 626.000000
-2577.871556 -174.146779 626.000000
-2578.555042 -176.026366 626.000000
-2579.238528 -177.905953 626.000000
-2579.922014 -179.785540 626.000000
-2580.605501 -181.665126 626.000000
-2581.288987 -183.544713 626.000000
-2581.972473 -185.424300 626.000000
-2582.655959 -187.303887 626.000000
-2583.339445 -189.183474 626.000000
-2584.022931 -191.063061 626.000000
-2584.706417 -192.942648 626.000000
-2585.389903 -194.822234 626.000000
-2586.073390 -196.701821 626.000000
-2586.756876 -198.581408 626.000000
-2587.440362 -200.460995 626.000000
-2588.123848 -202.340582 626.000000
-2588.807334 -204.220169 626.000000
-2589.490820 -206.099756 626.000000
-2590.174306 -207.979342 626.000000
-2590.857792 -209.858929 626.000000
-2591.541279 -211.738516 626.000000
-2592.224765 -213.618103 626.000000
-2592.908251 -215.497690 626.000000
-2593.591737 -217.377277 626.000000
-2594.275223 -219.256863 626.000000
-2594.958709 -221.136450 626.000000
-2595.642195 -223.016037 626.000000
-2596.325681 -224.895624 626.000000
-2597.009168 -226.775211 626.000000
-2597.692654 -228.654798 626.000000
-2598.376140 -230.534385 626.000000
-2599.059626 -232.413971 626.000000
-2599.743112 -234.293558 626.000000
-2600.426598 -236.173145 626.000000
-2601.110084 -238.052732 626.000000
-2601.793570 -239.932319 626.000000
-2602.477057 -241.811906 626.000000
-2603.160543 -243.691492 626.000000
-2603.844029 -245.571079 626.000000
-2604.527515 -247.450666 626.000000
-2605.211001 -249.330253 626.000000
-2605.894487 -251.209840 626.000000
-2606.577973 -253.089427 626.000000
-2607.261459 -254.969014 626.000000
-2607.944946 -256.848600 626.000000
-2608.628432 -258.728187 626.000000
-2609.311918 -260.607774 626.000000
-2609.995404 -262.487361 626.000000
-2610.678890 -264.366948 626.000000
-2611.362376 -266.246535 626.000000
-2612.045862 -268.126121 626.000000
-2612.729348 -270.005708 626.000000
-2613.412835 -271.885295 626.000000
-2614.096321 -273.764882 626.000000
-2614.779807 -275.644469 626.000000
-2615.463293 -277.524056 626.000000
-2616.146779 -279.403643 626.000000
-2616.830265 -281.283229 626.000000
-2617.513751 -283.162816 626.000000
-2618.197237 -285.042403 626.000000
-2618.880724 -286.921990 626.000000
-2619.564210 -288.801577 626.000000
-2620.247696 -290.681164 626.000000
-2620.931182 -292.560750 626.000000
-2621.614668 -294.440337 626.000000
-2622.298154 -296.319924 626.000000
-2622.981640 -298.199511 626.000000
-2623.665126 -300.079098 626.000000
-2624.348613 -301.958685 626.000000
-2625.032099 -303.838272 626.000000
-2625.715585 -305.717858 626.000000
-2626.399071 -307.597445 626.000000
-2627.082557 -309.477032 626.000000
-2628.000000 -312.000000 626.000000
-2629.950664 -312.411468 626.160015
-2631.901327 -312.822936 626.320031
-2633.851991 -313.234404 626.480046
-2635.802655 -313.645873 626.640062
-2637.753319 -314.057341 626.800077
-2639.703982 -314.468809 626.960092
-2641.654646 -314.880277 627.120108
-2643.605310 -315.291745 627.280123
-2645.555974 -315.703213 627.440138
-2647.506637 -316.114681 627.600154
-2649.457301 -316.526149 627.760169
-2651.407965 -316.937618 627.920185
-2653.358629 -317.349086 628.080200
-2655.309292 -317.760554 628.240215
-2657.259956 -318.172022 628.400231
-2659.210620 -318.583490 628.560246
-2661.161284 -318.994958 628.720262
-2663.111947 -319.406426 628.880277
-2665.062611 -319.817895 629.040292
-2667.013275 -320.229363 629.200308
-2668.963939 -320.640831 629.360323
-2670.914602 -321.052299 629.520338
-2672.865266 -321.463767 629.680354
-2674.815930 -321.875235 629.840369
-2676.766594 -322.286703 630.000385
-2678.717257 -322.698171 630.160400
-2680.667921 -323.109640 630.320415
-2682.618585 -323.521108 630.480431
-2684.569249 -323.932576 630.640446
-2686.519912 -324.344044 630.800462
-2688.470576 -324.755512 630.960477
-2690.421240 -325.166980 631.120492
-2692.371904 -325.578448 631.280508
-2694.322567 -325.989917 631.440523
-2696.273231 -326.401385 631.600538
-2698.223895 -326.812853 631.760554
-2700.174559 -327.224321 631.920569
-2702.125222 -327.635789 632.080585
-2704.075886 -328.047257 632.240600
-2706.026550 -328.458725 632.400615
-2707.977214 -328.870193 632.560631
-2709.927877 -329.281662 632.720646
-2711.878541 -329.693130 632.880662
-2713.829205 -330.104598 633.040677
-2715.779869 -330.516066 633.200692
-2717.730532 -330.927534 633.360708
-2719.681196 -331.339002 633.520723
-2721.631860 -331.750470 633.680739
-2723.582524 -332.161939 633.840754
-2725.533187 -332.573407 634.000769
-2727.483851 -332.984875 634.160785
-2729.434515 -333.396343 634.320800
-2731.385179 -333.807811 634.480815
-2733.335842 -334.219279 634.640831
-2735.286506 -334.630747 634.800846
-2737.237170 -335.042216 634.960862
-2739.187834 -335.453684 635.120877
-2741.138497 -335.865152 635.280892
-2743.089161 -336.276620 635.440908
-2745.039825 -336.688088 635.600923
-2746.990489 -337.099556 635.760939
-2748.941152 -337.511024 635.920954
-2750.891816 -337.922492 636.080969
-2752.842480 -338.333961 636.240985
-2754.793144 -338.745429 636.401000
-2756.743807 -339.156897 636.561015
-2758.694471 -339.568365 636.721031
-2760.645135 -339.979833 636.881046
-2762.595798 -340.391301 637.041062
-2764.546462 -340.802769 637.201077
-2766.497126 -341.214238 637.361092
-2768.447790 -341.625706 637.521108
-2770.398453 -342.037174 637.681123
-2772.349117 -342.448642 637.841139
-2774.299781 -342.860110 638.001154
-2776.250445 -343.271578 638.161169
-2778.201108 -343.683046 638.321185
-2780.151772 -344.094514 638.481200
-2782.102436 -344.505983 638.641215
-2784.053100 -344.917451 638.801231
-2786.003763 -345.328919 638.961246
-2787.954427 -345.740387 639.121262
-2789.905091 -346.151855 639.281277
-2791.855755 -346.563323 639.441292
-2793.806418 -346.974791 639.601308
-2795.757082 -347.386260 639.761323
-2797.707746 -347.797728 639.921339
-2799.658410 -348.209196 640.081354
-2801.609073 -348.620664 640.241369
-2803.559737 -349.032132 640.401385
-2805.510401 -349.443600 640.561400
-2807.461065 -349.855068 640.721415
-2809.411728 -350.266536 640.881431
-2811.362392 -350.678005 641.041446
-2813.313056 -351.089473 641.201462
-2815.263720 -351.500941 641.361477
-2817.214383 -351.912409 641.521492
-2819.165047 -352.323877 641.681508
-2821.115711 -352.735345 641.841523
-2823.066375 -353.146813 642.001539
-2825.017038 -353.558282 642.161554
-2826.967702 -353.969750 642.321569
-2828.918366 -354.381218 642.481585
-2830.869030 -354.792686 642.641600
-2832.819693 -355.204154 642.801615
-2834.770357 -355.615622 642.961631
-2836.721021 -356.027090 643.121646
-2838.671685 -356.438558 643.281662
-2840.622348 -356.850027 643.441677
-2842.573012 -357.261495 643.601692
-2844.523676 -357.672963 643.761708
-2846.474340 -358.084431 643.921723
-2848.425003 -358.495899 644.081739
-2850.375667 -358.907367 644.241754
-2852.326331 -359.318835 644.401769
-2854.276995 -359.730304 644.561785
-2856.227658 -360.141772 644.721800
-2858.178322 -360.553240 644.881815
-2860.128986 -360.964708 645.041831
-2862.079650 -361.376176 645.201846
-2864.030313 -361.787644 645.361862
-2865.980977 -362.199112 645.521877
-2867.931641 -362.610580 645.681892
-2869.882305 -363.022049 645.841908
-2871.832968 -363.433517 646.001923
-2873.783632 -363.844985 646.161939
-2875.734296 -364.256453 646.321954
-2877.684960 -364.667921 646.481969
-2879.635623 -365.079389 646.641985
-2881.586287 -365.490857 646.802000
-2883.536951 -365.902326 646.962015
-2885.487615 -366.313794 647.122031
-2887.438278 -366.725262 647.282046
-2889.388942 -367.136730 647.442062
-2891.339606 -367.548198 647.602077
-2893.290269 -367.959666 647.762092
-2895.240933 -368.371134 647.922108
-2897.191597 -368.782602 648.082123
-2899.142261 -369.194071 648.242139
-2901.092924 -369.605539 648.402154
-2903.043588 -370.017007 648.562169
-2904.994252 -370.428475 648.722185
-2906.944916 -370.839943 648.882200
-2908.895579 -371.251411 649.042216
-2910.846243 -371.662879 649.202231
-2912.796907 -372.074348 649.362246
-2914.747571 -372.485816 649.522262
-2916.698234 -372.897284 649.682277
-2918.648898 -373.308752 649.842292
-2920.599562 -373.720220 650.002308
-2922.550226 -374.131688 650.162323
-2924.500889 -374.543156 650.322339
-2926.451553 -374.954624 650.482354
-2928.402217 -375.366093 650.642369
-2930.352881 -375.777561 650.802385
-2932.303544 -376.189029 650.962400
-2934.254208 -376.600497 651.122416
-2936.204872 -377.011965 651.282431
-2938.155536 -377.423433 651.442446
-2940.106199 -377.834901 651.602462
-2942.056863 -378.246370 651.762477
-2944.007527 -378.657838 651.922492
-2945.958191 -379.069306 652.082508
-2947.908854 -379.480774 652.242523
-2949.859518 -379.892242 652.402539
-2951.810182 -380.303710 652.562554
-2953.760846 -380.715178 652.722569
-2955.711509 -381.126647 652.882585
-2957.662173 -381.538115 653.042600
-2959.612837 -381.949583 653.202616
-2961.563501 -382.361051 653.362631
-2963.514164 -382.772519 653.522646
-2965.464828 -383.183987 653.682662
-2967.415492 -383.595455 653.842677
-2969.366156 -384.006923 654.002692
-2971.316819 -384.418392 654.162708
-2973.267483 -384.829860 654.322723
-2975.218147 -385.241328 654.482739
-2977.168811 -385.652796 654.642754
-2979.119474 -386.064264 654.802769
-2981.070138 -386.475732 654.962785
-2983.020802 -386.887200 655.122800
-2984.971466 -387.298669 655.282816
-2986.922129 -387.710137 655.442831
-2988.872793 -388.121605 655.602846
-2990.823457 -388.533073 655.762862
-2992.774121 -388.944541 655.922877
-2994.724784 -389.356009 656.082892
-2996.675448 -389.767477 656.242908
-2998.626112 -390.178945 656.402923
-3000.576776 -390.590414 656.562939
-3002.527439 -391.001882 656.722954
-3004.478103 -391.413350 656.882969
-3006.428767 -391.824818 657.042985
-3008.379431 -392.236286 657.203000
-3010.330094 -392.647754 657.363016
-3012.280758 -393.059222 657.523031
-3014.231422 -393.470691 657.683046
-3016.182086 -393.882159 657.843062
-3018.132749 -394.293627 658.003077
-3020.083413 -394.705095 658.163092
-3022.034077 -395.116563 658.323108
-3023.984740 -395.528031 658.483123
-3025.935404 -395.939499 658.643139
-3027.886068 -396.350967 658.803154
-3029.836732 -396.762436 658.963169
-3031.787395 -397.173904 659.123185
-3033.738059 -397.585372 659.283200
-3035.688723 -397.996840 659.443216
-3037.639387 -398.408308 659.603231
-3039.590050 -398.819776 659.763246
-3041.540714 -399.231244 659.923262
-3043.491378 -399.642713 660.083277
-3045.442042 -400.054181 660.243292
-3047.392705 -400.465649 660.403308
-3049.343369 -400.877117 660.563323
-3051.294033 -401.288585 660.723339
-3053.244697 -401.700053 660.883354
-3055.195360 -402.111521 661.043369
-3057.146024 -402.522989 661.203385
-3059.096688 -402.934458 661.363400
-3061.047352 -403.345926 661.523416
-3062.998015 -403.757394 661.683431
-3064.948679 -404.168862 661.843446
-3066.899343 -404.580330 662.003462
-3068.850007 -404.991798 662.163477
-3070.800670 -405.403266 662.323492
-3072.751334 -405.814735 662.483508
-3074.701998 -406.226203 662.643523
-3076.652662 -406.637671 662.803539
-3078.603325 -407.049139 662.963554
-3080.553989 -407.460607 663.123569
-3082.504653 -407.872075 663.283585
-3084.455317 -408.283543 663.443600
-3086.405980 -408.695011 663.603616
-3088.356644 -409.106480 663.763631
-3090.307308 -409.517948 663.923646
-3092.257972 -409.929416 664.083662
-3094.208635 -410.340884 664.243677
-3096.159299 -410.752352 664.403693
-3098.109963 -411.163820 664.563708
-3100.060627 -411.575288 664.723723
-3102.011290 -411.986757 664.883739
-3103.961954 -412.398225 665.043754
-3105.912618 -412.809693 665.203769
-3107.863282 -413.221161 665.363785
-3109.813945 -413.632629 665.523800
-3111.764609 -414.044097 665.683816
-3113.715273 -414.455565 665.843831
-3115.665937 -414.867033 666.003846
-3117.616600 -415.278502 666.163862
-3119.567264 -415.689970 666.323877
-3121.517928 -416.101438 666.483893
-3123.468592 -416.512906 666.643908
-3125.419255 -416.924374 666.803923
-3127.369919 -417.335842 666.963939
-3129.320583 -417.747310 667.123954
-3131.271247 -418.158779 667.283969
-3133.221910 -418.570247 667.443985
-3135.172574 -418.981715 667.604000
-3137.123238 -419.393183 667.764016
-3140.000000 -420.000000 668.000000
-3140.095130 -420.000000 666.002264
-3140.190261 -420.000000 664.004527
-3140.285391 -420.000000 662.006791
-3140.380521 -420.000000 660.009055
-3140.475651 -420.000000 658.011319
-3140.570782 -420.000000 656.013582
-3140.665912 -420.000000 654.015846
-3140.761042 -420.000000 652.018110
-3140.856173 -420.000000 650.020374
-3140.951303 -420.000000 648.022637
-3141.046433 -420.000000 646.024901
-3141.141564 -420.000000 644.027165
-3141.236694 -420.000000 642.029428
-3141.331824 -420.000000 640.031692
-3141.426954 -420.000000 638.033956
-3141.522085 -420.000000 636.036220
-3141.617215 -420.000000 634.038483
-3141.712345 -420.000000 632.040747
-3141.807476 -420.000000 630.043011
-3141.902606 -420.000000 628.045274
-3141.997736 -420.000000 626.047538
-3142.092867 -420.000000 624.049802
-3142.187997 -420.000000 622.052066
-3142.283127 -420.000000 620.054329
-3142.378257 -420.000000 618.056593
-3142.473388 -420.000000 616.058857
-3142.568518 -420.000000 614.061121
-3142.663648 -420.000000 612.063384
-3142.758779 -420.000000 610.065648
-3142.853909 -420.000000 608.067912
-3142.949039 -420.000000 606.070175
-3143.044170 -420.000000 604.072439
-3143.139300 -420.000000 602.074703
-3143.234430 -420.000000 600.076967
-3143.329560 -420.000000 598.079230
-3143.424691 -420.000000 596.081494
-3143.519821 -420.000000 594.083758
-3143.614951 -420.000000 592.086022
-3143.710082 -420.000000 590.088285
-3143.805212 -420.000000 588.090549
-3143.900342 -420.000000 586.092813
-3143.995473 -420.000000 584.095076
-3144.090603 -420.000000 582.097340
-3144.185733 -420.000000 580.099604
-3144.280863 -420.000000 578.101868
-3144.375994 -420.000000 576.104131
-3144.471124 -420.000000 574.106395
-3144.566254 -420.000000 572.108659
-3144.661385 -420.000000 570.110923
-3144.756515 -420.000000 568.113186
-3144.851645 -420.000000 566.115450
-3144.946776 -420.000000 564.117714
-3145.041906 -420.000000 562.119977
-3145.137036 -420.000000 560.122241
-3145.232166 -420.000000 558.124505
-3145.327297 -420.000000 556.126769
-3145.422427 -420.000000 554.129032
-3145.517557 -420.000000 552.131296
-3145.612688 -420.000000 550.133560
-3145.707818 -420.000000 548.135823
-3145.802948 -420.000000 546.138087
-3145.898079 -420.000000 544.140351
-3145.993209 -420.000000 542.142615
-3146.088339 -420.000000 540.144878
-3146.183469 -420.000000 538.147142
-3146.278600 -420.000000 536.149406
-3146.373730 -420.000000 534.151670
-3146.468860 -420.000000 532.153933
-3146.563991 -420.000000 530.156197
-3146.659121 -420.000000 528.158461
-3146.754251 -420.000000 526.160724
-3146.849382 -420.000000 524.162988
-3146.944512 -420.000000 522.165252
-3147.039642 -420.000000 520.167516
-3147.134772 -420.000000 518.169779
-3147.229903 -420.000000 516.172043
-3147.325033 -420.000000 514.174307
-3147.420163 -420.000000 512.176571
-3147.515294 -420.000000 510.178834
-3147.610424 -420.000000 508.181098
-3147.705554 -420.000000 506.183362
-3147.800685 -420.000000 504.185625
-3147.895815 -420.000000 502.187889
-3148.000000 -420.000000 500.000000
-3149.412406 -420.525896 498.685260
-3150.824813 -421.051792 497.370520
-3152.237219 -421.577688 496.055780
-3153.649626 -422.103584 494.741040
-3155.062032 -422.629480 493.426300
-3156.474439 -423.155376 492.111560
-3157.886845 -423.681272 490.796820
-3159.299252 -424.207168 489.482080
-3160.711658 -424.733064 488.167340
-3162.124065 -425.258960 486.852600
-3163.536471 -425.784856 485.537859
-3164.948877 -426.310752 484.223119
-3166.361284 -426.836648 482.908379
-3167.773690 -427.362544 481.593639
-3169.186097 -427.888440 480.278899
-3170.598503 -428.414336 478.964159
-3172.010910 -428.940232 477.649419
-3173.423316 -429.466128 476.334679
-3174.835723 -429.992024 475.019939
-3176.248129 -430.517920 473.705199
-3177.660535 -431.043816 472.390459
-3179.072942 -431.569712 471.075719
-3180.485348 -432.095608 469.760979
-3181.897755 -432.621504 468.446239
-3183.310161 -433.147400 467.131499
-3184.722568 -433.673296 465.816759
-3186.134974 -434.199193 464.502019
-3187.547381 -434.725089 463.187279
-3188.959787 -435.250985 461.872539
-3190.372194 -435.776881 460.557799
-3191.784600 -436.302777 459.243059
-3193.197006 -436.828673 457.928318
-3194.609413 -437.354569 456.613578
-3196.021819 -437.880465 455.298838
-3197.434226 -438.406361 453.984098
-3198.846632 -438.932257 452.669358
-3200.259039 -439.458153 451.354618
-3201.671445 -439.984049 450.039878
-3203.083852 -440.509945 448.725138
-3204.496258 -441.035841 447.410398
-3205.908665 -441.561737 446.095658
-3207.321071 -442.087633 444.780918
-3208.733477 -442.613529 443.466178
-3210.145884 -443.139425 442.151438
-3211.558290 -443.665321 440.836698
-3212.970697 -444.191217 439.521958
-3214.383103 -444.717113 438.207218
-3215.795510 -445.243009 436.892478
-3217.207916 -445.768905 435.577738
-3218.620323 -446.294801 434.262998
-3220.032729 -446.820697 432.948258
-3221.445135 -447.346593 431.633518
-3222.857542 -447.872489 430.318777
-3224.269948 -448.398385 429.004037
-3225.682355 -448.924281 427.689297
-3227.094761 -449.450177 426.374557
-3228.507168 -449.976073 425.059817
-3229.919574 -450.501969 423.745077
-3231.331981 -451.027865 422.430337
-3232.744387 -451.553761 421.115597
-3234.156794 -452.079657 419.800857
-3235.569200 -452.605553 418.486117
-3236.981606 -453.131449 417.171377
-3238.394013 -453.657345 415.856637
-3239.806419 -454.183241 414.541897
-3241.218826 -454.709137 413.227157
-3242.631232 -455.235033 411.912417
-3244.043639 -455.760929 410.597677
-3245.456045 -456.286825 409.282937
-3246.868452 -456.812721 407.968197
-3248.280858 -457.338617 406.653457
-3249.693264 -457.864513 405.338717
-3251.105671 -458.390409 404.023977
-3252.518077 -458.916305 402.709236
-3253.930484 -459.442201 401.394496
-3255.342890 -459.968097 400.079756
-3256.755297 -460.493993 398.765016
-3258.167703 -461.019889 397.450276
-3259.580110 -461.545786 396.135536
-3260.992516 -462.071682 394.820796
-3262.404923 -462.597578 393.506056
-3263.817329 -463.123474 392.191316
-3265.229735 -463.649370 390.876576
-3266.642142 -464.175266 389.561836
-3268.054548 -464.701162 388.247096
-3269.466955 -465.227058 386.932356
-3270.879361 -465.752954 385.617616
-3272.291768 -466.278850 384.302876
-3273.704174 -466.804746 382.988136
-3275.116581 -467.330642 381.673396
-3276.528987 -467.856538 380.358656
-3277.941394 -468.382434 379.043916
-3279.353800 -468.908330 377.729176
-3280.766206 -469.434226 376.414436
-3282.178613 -469.960122 375.099695
-3283.591019 -470.486018 373.784955
-3285.003426 -471.011914 372.470215
-3286.415832 -471.537810 371.155475
-3287.828239 -472.063706 369.840735
-3289.240645 -472.589602 368.525995
-3290.653052 -473.115498 367.211255
-3292.065458 -473.641394 365.896515
-3293.477864 -474.167290 364.581775
-3294.890271 -474.693186 363.267035
-3296.302677 -475.219082 361.952295
-3297.715084 -475.744978 360.637555
-3299.127490 -476.270874 359.322815
-3300.539897 -476.796770 358.008075
-3301.952303 -477.322666 356.693335
-3303.364710 -477.848562 355.378595
-3304.777116 -478.374458 354.063855
-3306.189523 -478.900354 352.749115
-3307.601929 -479.426250 351.434375
-3309.014335 -479.952146 350.119635
-3310.426742 -480.478042 348.804895
-3311.839148 -481.003938 347.490154
-3313.251555 -481.529834 346.175414
-3314.663961 -482.055730 344.860674
-3316.076368 -482.581626 343.545934
-3317.488774 -483.107522 342.231194
-3318.901181 -483.633418 340.916454
-3320.313587 -484.159314 339.601714
-3321.725994 -484.685210 338.286974
-3323.138400 -485.211106 336.972234
-3324.550806 -485.737002 335.657494
-3325.963213 -486.262898 334.342754
-3327.375619 -486.788794 333.028014
-3328.788026 -487.314690 331.713274
-3330.200432 -487.840586 330.398534
-3331.612839 -488.366482 329.083794
-3333.025245 -488.892379 327.769054
-3334.437652 -489.418275 326.454314
-3335.850058 -489.944171 325.139574
-3337.262464 -490.470067 323.824834
-3338.674871 -490.995963 322.510094
-3340.087277 -491.521859 321.195353
-3341.499684 -492.047755 319.880613
-3342.912090 -492.573651 318.565873
-3344.324497 -493.099547 317.251133
-3345.736903 -493.625443 315.936393
-3347.149310 -494.151339 314.621653
-3348.561716 -494.677235 313.306913
-3349.974123 -495.203131 311.992173
-3351.386529 -495.729027 310.677433
-3352.798935 -496.254923 309.362693
-3354.211342 -496.780819 308.047953
-3355.623748 -497.306715 306.733213
-3357.036155 -497.832611 305.418473
-3358.448561 -498.358507 304.103733
-3359.860968 -498.884403 302.788993
-3361.273374 -499.410299 301.474253
-3362.685781 -499.936195 300.159513
-3364.098187 -500.462091 298.844773
-3365.510594 -500.987987 297.530033
-3366.923000 -501.513883 296.215293
-3368.335406 -502.039779 294.900553
-3369.747813 -502.565675 293.585812
-3371.160219 -503.091571 292.271072
-3372.572626 -503.617467 290.956332
-3373.985032 -504.143363 289.641592
-3375.397439 -504.669259 288.326852
-3376.809845 -505.195155 287.012112
-3378.222252 -505.721051 285.697372
-3379.634658 -506.246947 284.382632
-3381.047064 -506.772843 283.067892
-3382.459471 -507.298739 281.753152
-3383.871877 -507.824635 280.438412
-3385.284284 -508.350531 279.123672
-3386.696690 -508.876427 277.808932
-3388.109097 -509.402323 276.494192
-3389.521503 -509.928219 275.179452
-3390.933910 -510.454115 273.864712
-3392.346316 -510.980011 272.549972
-3393.758723 -511.505907 271.235232
-3395.171129 -512.031803 269.920492
-3396.583535 -512.557699 268.605752
-3397.995942 -513.083595 267.291012
-3399.408348 -513.609491 265.976271
-3400.820755 -514.135387 264.661531
-3402.233161 -514.661283 263.346791
-3403.645568 -515.187179 262.032051
-3405.057974 -515.713075 260.717311
-3406.470381 -516.238971 259.402571
-3407.882787 -516.764868 258.087831
-3409.295193 -517.290764 256.773091
-3410.707600 -517.816660 255.458351
-3412.120006 -518.342556 254.143611
-3413.532413 -518.868452 252.828871
-3414.944819 -519.394348 251.514131
-3416.357226 -519.920244 250.199391
-3417.769632 -520.446140 248.884651
-3419.182039 -520.972036 247.569911
-3420.594445 -521.497932 246.255171
-3422.006852 -522.023828 244.940431
-3423.419258 -522.549724 243.625691
-3424.831664 -523.075620 242.310951
-3426.244071 -523.601516 240.996211
-3427.656477 -524.127412 239.681471
-3429.068884 -524.653308 238.366730
-3430.481290 -525.179204 237.051990
-3431.893697 -525.705100 235.737250
-3433.306103 -526.230996 234.422510
-3434.718510 -526.756892 233.107770
-3436.130916 -527.282788 231.793030
-3437.543323 -527.808684 230.478290
-3438.955729 -528.334580 229.163550
-3440.368135 -528.860476 227.848810
-3441.780542 -529.386372 226.534070
-3443.192948 -529.912268 225.219330
-3444.605355 -530.438164 223.904590
-3446.017761 -530.964060 222.589850
-3447.430168 -531.489956 221.275110
-3448.842574 -532.015852 219.960370
-3450.254981 -532.541748 218.645630
-3451.667387 -533.067644 217.330890
-3453.079793 -533.593540 216.016150
-3454.492200 -534.119436 214.701410
-3455.904606 -534.645332 213.386670
-3457.317013 -535.171228 212.071930
-3458.729419 -535.697124 210.757189
-3460.141826 -536.223020 209.442449
-3461.554232 -536.748916 208.127709
-3462.966639 -537.274812 206.812969
-3464.379045 -537.800708 205.498229
-3465.791452 -538.326604 204.183489
-3467.203858 -538.852500 202.868749
-3468.616264 -539.378396 201.554009
-3470.028671 -539.904292 200.239269
-3471.441077 -540.430188 198.924529
-3472.853484 -540.956084 197.609789
-3474.265890 -541.481980 196.295049
-3475.678297 -542.007876 194.980309
-3477.090703 -542.533772 193.665569
-3478.503110 -543.059668 192.350829
-3479.915516 -543.585564 191.036089
-3481.327923 -544.111461 189.721349
-3482.740329 -544.637357 188.406609
-3484.152735 -545.163253 187.091869
-3485.565142 -545.689149 185.777129
-3486.977548 -546.215045 184.462389
-3488.389955 -546.740941 183.147648
-3489.802361 -547.266837 181.832908
-3491.214768 -547.792733 180.518168
-3492.627174 -548.318629 179.203428
-3494.039581 -548.844525 177.888688
-3495.451987 -549.370421 176.573948
-3496.864393 -549.896317 175.259208
-3498.276800 -550.422213 173.944468
-3499.689206 -550.948109 172.629728
-3501.101613 -551.474005 171.314988
-3502.514019 -551.999901 170.000248
-3503.926426 -552.525797 168.685508
-3505.338832 -553.051693 167.370768
-3506.751239 -553.577589 166.056028
-3508.163645 -554.103485 164.741288
-3509.576052 -554.629381 163.426548
-3510.988458 -555.155277 162.111808
-3512.400864 -555.681173 160.797068
-3513.813271 -556.207069 159.482328
-3515.225677 -556.732965 158.167588
-3516.638084 -557.258861 156.852848
-3518.050490 -557.784757 155.538107
-3519.462897 -558.310653 154.223367
-3520.875303 -558.836549 152.908627
-3522.287710 -559.362445 151.593887
-3524.000000 -560.000000 150.000000
-3526.000000 -560.000000 150.000000
-3528.000000 -560.000000 150.000000
-3532.000000 -560.000000 150.000000
-3533.490857 -560.000000 151.333171
-3534.981715 -560.000000 152.666341
-3536.472572 -560.000000 153.999512
-3537.963430 -560.000000 155.332683
-3539.454287 -560.000000 156.665853
-3540.945145 -560.000000 157.999024
-3542.436002 -560.000000 159.332194
-3543.926860 -560.000000 160.665365
-3545.417717 -560.000000 161.998536
-3546.908575 -560.000000 163.331706
-3548.399432 -560.000000 164.664877
-3549.890290 -560.000000 165.998048
-3551.381147 -560.000000 167.331218
-3552.872005 -560.000000 168.664389
-3554.362862 -560.000000 169.997560
-3555.853720 -560.000000 171.330730
-3557.344577 -560.000000 172.663901
-3558.835435 -560.000000 173.997071
-3560.326292 -560.000000 175.330242
-3561.817150 -560.000000 176.663413
-3563.308007 -560.000000 177.996583
-3564.798865 -560.000000 179.329754
-3566.289722 -560.000000 180.662925
-3567.780580 -560.000000 181.996095
-3569.271437 -560.000000 183.329266
-3570.762295 -560.000000 184.662437
-3572.253152 -560.000000 185.995607
-3573.744010 -560.000000 187.328778
-3575.234867 -560.000000 188.661949
-3576.725725 -560.000000 189.995119
-3578.216582 -560.000000 191.328290
-3579.707440 -560.000000 192.661460
-3581.198297 -560.000000 193.994631
-3582.689155 -560.000000 195.327802
-3584.180012 -560.000000 196.660972
-3585.670870 -560.000000 197.994143
-3587.161727 -560.000000 199.327314
-3588.652585 -560.000000 200.660484
-3590.143442 -560.000000 201.993655
-3591.634300 -560.000000 203.326826
-3593.125157 -560.000000 204.659996
-3594.616014 -560.000000 205.993167
-3596.106872 -560.000000 207.326337
-3597.597729 -560.000000 208.659508
-3599.088587 -560.000000 209.992679
-3600.579444 -560.000000 211.325849
-3602.070302 -560.000000 212.659020
-3603.561159 -560.000000 213.992191
-3605.052017 -560.000000 215.325361
-3606.542874 -560.000000 216.658532
-3608.033732 -560.000000 217.991703
-3609.524589 -560.000000 219.324873
-3611.015447 -560.000000 220.658044
-3612.506304 -560.000000 221.991214
-3613.997162 -560.000000 223.324385
-3615.488019 -560.000000 224.657556
-3616.978877 -560.000000 225.990726
-3618.469734 -560.000000 227.323897
-3619.960592 -560.000000 228.657068
-3621.451449 -560.000000 229.990238
-3622.942307 -560.000000 231.323409
-3624.433164 -560.000000 232.656580
-3625.924022 -560.000000 233.989750
-3627.414879 -560.000000 235.322921
-3628.905737 -560.000000 236.656091
-3630.396594 -560.000000 237.989262
-3631.887452 -560.000000 239.322433
-3633.378309 -560.000000 240.655603
-3634.869167 -560.000000 241.988774
-3636.360024 -560.000000 243.321945
-3637.850882 -560.000000 244.655115
-3639.341739 -560.000000 245.988286
-3640.832597 -560.000000 247.321457
-3642.323454 -560.000000 248.654627
-3643.814312 -560.000000 249.987798
-3645.305169 -560.000000 251.320969
-3646.796027 -560.000000 252.654139
-3648.286884 -560.000000 253.987310
-3649.777742 -560.000000 255.320480
-3651.268599 -560.000000 256.653651
-3652.759457 -560.000000 257.986822
-3654.250314 -560.000000 259.319992
-3655.741171 -560.000000 260.653163
-3657.232029 -560.000000 261.986334
-3658.722886 -560.000000 263.319504
-3660.213744 -560.000000 264.652675
-3661.704601 -560.000000 265.985846
-3663.195459 -560.000000 267.319016
-3664.686316 -560.000000 268.652187
-3666.177174 -560.000000 269.985357
-3667.668031 -560.000000 271.318528
-3669.158889 -560.000000 272.651699
-3670.649746 -560.000000 273.984869
-3672.140604 -560.000000 275.318040
-3673.631461 -560.000000 276.651211
-3675.122319 -560.000000 277.984381
-3676.613176 -560.000000 279.317552
-3678.104034 -560.000000 280.650723
-3679.594891 -560.000000 281.983893
-3681.085749 -560.000000 283.317064
-3682.576606 -560.000000 284.650234
-3684.067464 -560.000000 285.983405
-3685.558321 -560.000000 287.316576
-3687.049179 -560.000000 288.649746
-3688.540036 -560.000000 289.982917
-3690.030894 -560.000000 291.316088
-3691.521751 -560.000000 292.649258
-3693.012609 -560.000000 293.982429
-3694.503466 -560.000000 295.315600
-3695.994324 -560.000000 296.648770
-3697.485181 -560.000000 297.981941
-3698.976039 -560.000000 299.315111
-3700.466896 -560.000000 300.648282
-3701.957754 -560.000000 301.981453
-3703.448611 -560.000000 303.314623
-3704.939469 -560.000000 304.647794
-3706.430326 -560.000000 305.980965
-3707.921184 -560.000000 307.314135
-3709.412041 -560.000000 308.647306
-3710.902899 -560.000000 309.980477
-3712.393756 -560.000000 311.313647
-3713.884614 -560.000000 312.646818
-3715.375471 -560.000000 313.979989
-3716.866329 -560.000000 315.313159
-3718.357186 -560.000000 316.646330
-3719.848043 -560.000000 317.979500
-3721.338901 -560.000000 319.312671
-3722.829758 -560.000000 320.645842
-3724.320616 -560.000000 321.979012
-3725.811473 -560.000000 323.312183
-3727.302331 -560.000000 324.645354
-3728.793188 -560.000000 325.978524
-3730.284046 -560.000000 327.311695
-3731.774903 -560.000000 328.644866
-3733.265761 -560.000000 329.978036
-3734.756618 -560.000000 331.311207
-3736.247476 -560.000000 332.644377
-3737.738333 -560.000000 333.977548
-3740.000000 -560.000000 336.000000
-3740.156845 -558.055126 336.439165
-3740.313689 -556.110253 336.878330
-3740.470534 -554.165379 337.317495
-3740.627379 -552.220505 337.756660
-3740.784223 -550.275631 338.195825
-3740.941068 -548.330758 338.634990
-3741.097913 -546.385884 339.074155
-3741.254757 -544.441010 339.513320
-3741.411602 -542.496136 339.952485
-3741.568447 -540.551263 340.391650
-3741.725291 -538.606389 340.830815
-3741.882136 -536.661515 341.269980
-3742.038981 -534.716642 341.709145
-3742.195825 -532.771768 342.148311
-3742.352670 -530.826894 342.587476
-3742.509514 -528.882020 343.026641
-3742.666359 -526.937147 343.465806
-3742.823204 -524.992273 343.904971
-3742.980048 -523.047399 344.344136
-3743.136893 -521.102525 344.783301
-3743.293738 -519.157652 345.222466
-3743.450582 -517.212778 345.661631
-3743.607427 -515.267904 346.100796
-3743.764272 -513.323030 346.539961
-3743.921116 -511.378157 346.979126
-3744.077961 -509.433283 347.418291
-3744.234806 -507.488409 347.857456
-3744.391650 -505.543536 348.296621
-3744.548495 -503.598662 348.735786
-3744.705340 -501.653788 349.174951
-3744.862184 -499.708914 349.614116
-3745.019029 -497.764041 350.053281
-3745.175874 -495.819167 350.492446
-3745.332718 -493.874293 350.931611
-3745.489563 -491.929419 351.370776
-3745.646408 -489.984546 351.809941
-3745.803252 -488.039672 352.249106
-3745.960097 -486.094798 352.688271
-3746.116942 -484.149925 353.127436
-3746.273786 -482.205051 353.566601
-3746.430631 -480.260177 354.005766
-3746.587476 -478.315303 354.444932
-3746.744320 -476.370430 354.884097
-3746.901165 -474.425556 355.323262
-3747.058010 -472.480682 355.762427
-3747.214854 -470.535808 356.201592
-3747.371699 -468.590935 356.640757
-3747.528543 -466.646061 357.079922
-3747.685388 -464.701187 357.519087
-3747.842233 -462.756314 357.958252
-3747.999077 -460.811440 358.397417
-3748.155922 -458.866566 358.836582
-3748.312767 -456.921692 359.275747
-3748.469611 -454.976819 359.714912
-3748.626456 -453.031945 360.154077
-3748.783301 -451.087071 360.593242
-3748.940145 -449.142197 361.032407
-3749.096990 -447.197324 361.471572
-3749.253835 -445.252450 361.910737
-3749.410679 -443.307576 362.349902
-3749.567524 -441.362702 362.789067
-3749.724369 -439.417829 363.228232
-3749.881213 -437.472955 363.667397
-3750.038058 -435.528081 364.106562
-3750.194903 -433.583208 364.545727
-3750.351747 -431.638334 364.984892
-3750.508592 -429.693460 365.424057
-3750.665437 -427.748586 365.863222
-3750.822281 -425.803713 366.302387
-3750.979126 -423.858839 366.741553
-3751.135971 -421.913965 367.180718
-3751.292815 -419.969091 367.619883
-3751.449660 -418.024218 368.059048
-3751.606505 -416.079344 368.498213
-3751.763349 -414.134470 368.937378
-3751.920194 -412.189597 369.376543
-3752.077038 -410.244723 369.815708
-3752.233883 -408.299849 370.254873
-3752.390728 -406.354975 370.694038
-3752.547572 -404.410102 371.133203
-3752.704417 -402.465228 371.572368
-3752.861262 -400.520354 372.011533
-3753.018106 -398.575480 372.450698
-3753.174951 -396.630607 372.889863
-3753.331796 -394.685733 373.329028
-3753.488640 -392.740859 373.768193
-3753.645485 -390.795985 374.207358
-3753.802330 -388.851112 374.646523
-3753.959174 -386.906238 375.085688
-3754.116019 -384.961364 375.524853
-3754.272864 -383.016491 375.964018
-3754.429708 -381.071617 376.403183
-3754.586553 -379.126743 376.842348
-3754.743398 -377.181869 377.281513
-3754.900242 -375.236996 377.720678
-3755.057087 -373.292122 378.159843
-3755.213932 -371.347248 378.599008
-3755.370776 -369.402374 379.038174
-3755.527621 -367.457501 379.477339
-3755.684466 -365.512627 379.916504
-3755.841310 -363.567753 380.355669
-3755.998155 -361.622880 380.794834
-3756.155000 -359.678006 381.233999
-3756.311844 -357.733132 381.673164
-3756.468689 -355.788258 382.112329
-3756.625533 -353.843385 382.551494
-3756.782378 -351.898511 382.990659
-3756.939223 -349.953637 383.429824
-3757.096067 -348.008763 383.868989
-3757.252912 -346.063890 384.308154
-3757.409757 -344.119016 384.747319
-3757.566601 -342.174142 385.186484
-3757.723446 -340.229269 385.625649
-3757.880291 -338.284395 386.064814
-3758.037135 -336.339521 386.503979
-3758.193980 -334.394647 386.943144
-3758.350825 -332.449774 387.382309
-3758.507669 -330.504900 387.821474
-3758.664514 -328.560026 388.260639
