-968.000000 0.000000 460.000000
-970.000000 0.000000 460.000000
-972.000000 0.000000 460.000000
-974.000000 0.000000 460.000000
-976.000000 0.000000 460.000000
-978.000000 0.000000 460.000000
-980.000000 0.000000 460.000000
-982.000000 0.000000 460.000000
-984.000000 0.000000 460.000000
-988.000000 0.000000 460.000000
-989.949485 -0.010891 460.446530
-991.898970 -0.021782 460.893060
-993.848455 -0.032673 461.339590
-995.797940 -0.043564 461.786120
-997.747426 -0.054455 462.232651
-999.696911 -0.065346 462.679181
-1001.646396 -0.076237 463.125711
-1003.595881 -0.087128 463.572241
-1005.545366 -0.098019 464.018771
-1007.494851 -0.108910 464.465301
-1009.444336 -0.119801 464.911831
-1011.393821 -0.130692 465.358361
-1013.343307 -0.141583 465.804891
-1015.292792 -0.152474 466.251422
-1017.242277 -0.163365 466.697952
-1019.191762 -0.174256 467.144482
-1021.141247 -0.185147 467.591012
-1023.090732 -0.196038 468.037542
-1025.040217 -0.206929 468.484072
-1026.989702 -0.217820 468.930602
-1028.939188 -0.228711 469.377132
-1030.888673 -0.239602 469.823662
-1032.838158 -0.250493 470.270193
-1034.787643 -0.261383 470.716723
-1036.737128 -0.272274 471.163253
-1038.686613 -0.283165 471.609783
-1040.636098 -0.294056 472.056313
-1042.585583 -0.304947 472.502843
-1044.535069 -0.315838 472.949373
-1046.484554 -0.326729 473.395903
-1048.434039 -0.337620 473.842433
-1050.383524 -0.348511 474.288964
-1052.333009 -0.359402 474.735494
-1054.282494 -0.370293 475.182024
-1056.231979 -0.381184 475.628554
-1058.181464 -0.392075 476.075084
-1060.130950 -0.402966 476.521614
-1062.080435 -0.413857 476.968144
-1064.029920 -0.424748 477.414674
-1065.979405 -0.435639 477.861204
-1067.928890 -0.446530 478.307735
-1069.878375 -0.457421 478.754265
-1071.827860 -0.468312 479.200795
-1073.777345 -0.479203 479.647325
-1075.726831 -0.490094 480.093855
-1077.676316 -0.500985 480.540385
-1079.625801 -0.511876 480.986915
-1081.575286 -0.522767 481.433445
-1083.524771 -0.533658 481.879975
-1085.474256 -0.544549 482.326506
-1087.423741 -0.555440 482.773036
-1089.373226 -0.566331 483.219566
-1091.322712 -0.577222 483.666096
-1093.272197 -0.588113 484.112626
-1095.221682 -0.599004 484.559156
-1097.171167 -0.609895 485.005686
-1099.120652 -0.620786 485.452216
-1101.070137 -0.631677 485.898746
-1103.019622 -0.642568 486.345277
-1104.969107 -0.653459 486.791807
-1106.918593 -0.664350 487.238337
-1108.868078 -0.675241 487.684867
-1110.817563 -0.686132 488.131397
-1112.767048 -0.697023 488.577927
-1114.716533 -0.707914 489.024457
-1116.666018 -0.718805 489.470987
-1118.615503 -0.729696 489.917518
-1120.564988 -0.740587 490.364048
-1122.514474 -0.751478 490.810578
-1124.463959 -0.762368 491.257108
-1126.413444 -0.773259 491.703638
-1128.362929 -0.784150 492.150168
-1130.312414 -0.795041 492.596698
-1132.261899 -0.805932 493.043228
-1134.211384 -0.816823 493.489758
-1136.160869 -0.827714 493.936289
-1138.110354 -0.838605 494.382819
-1140.059840 -0.849496 494.829349
-1142.009325 -0.860387 495.275879
-1143.958810 -0.871278 495.722409
-1145.908295 -0.882169 496.168939
-1147.857780 -0.893060 496.615469
-1149.807265 -0.903951 497.061999
-1151.756750 -0.914842 497.508529
-1153.706235 -0.925733 497.955060
-1155.655721 -0.936624 498.401590
-1157.605206 -0.947515 498.848120
-1159.554691 -0.958406 499.294650
-1161.504176 -0.969297 499.741180
-1163.453661 -0.980188 500.187710
-1165.403146 -0.991079 500.634240
-1167.352631 -1.001970 501.080770
-1169.302116 -1.012861 501.527300
-1171.251602 -1.023752 501.973831
-1173.201087 -1.034643 502.420361
-1175.150572 -1.045534 502.866891
-1177.100057 -1.056425 503.313421
-1179.049542 -1.067316 503.759951
-1180.999027 -1.078207 504.206481
-1182.948512 -1.089098 504.653011
-1184.897997 -1.099989 505.099541
-1186.847483 -1.110880 505.546071
-1188.796968 -1.121771 505.992602
-1190.746453 -1.132662 506.439132
-1192.695938 -1.143553 506.885662
-1194.645423 -1.154444 507.332192
-1196.594908 -1.165335 507.778722
-1198.544393 -1.176226 508.225252
-1200.493878 -1.187117 508.671782
-1202.443364 -1.198008 509.118312
-1204.392849 -1.208899 509.564842
-1206.342334 -1.219790 510.011373
-1208.291819 -1.230681 510.457903
-1210.241304 -1.241572 510.904433
-1212.190789 -1.252463 511.350963
-1214.140274 -1.263353 511.797493
-1216.089759 -1.274244 512.244023
-1218.039245 -1.285135 512.690553
-1219.988730 -1.296026 513.137083
-1221.938215 -1.306917 513.583613
-1223.887700 -1.317808 514.030144
-1225.837185 -1.328699 514.476674
-1227.786670 -1.339590 514.923204
-1229.736155 -1.350481 515.369734
-1231.685640 -1.361372 515.816264
-1233.635126 -1.372263 516.262794
-1235.584611 -1.383154 516.709324
-1237.534096 -1.394045 517.155854
-1239.483581 -1.404936 517.602384
-1241.433066 -1.415827 518.048915
-1243.382551 -1.426718 518.495445
-1245.332036 -1.437609 518.941975
-1247.281521 -1.448500 519.388505
-1249.231007 -1.459391 519.835035
-1251.180492 -1.470282 520.281565
-1253.129977 -1.481173 520.728095
-1255.079462 -1.492064 521.174625
-1257.028947 -1.502955 521.621155
-1258.978432 -1.513846 522.067686
-1260.927917 -1.524737 522.514216
-1262.877402 -1.535628 522.960746
-1264.826887 -1.546519 523.407276
-1266.776373 -1.557410 523.853806
-1268.725858 -1.568301 524.300336
-1270.675343 -1.579192 524.746866
-1272.624828 -1.590083 525.193396
-1274.574313 -1.600974 525.639926
-1276.523798 -1.611865 526.086457
-1278.473283 -1.622756 526.532987
-1280.422768 -1.633647 526.979517
-1282.372254 -1.644538 527.426047
-1284.321739 -1.655429 527.872577
-1286.271224 -1.666320 528.319107
-1288.220709 -1.677211 528.765637
-1290.170194 -1.688102 529.212167
-1292.119679 -1.698993 529.658697
-1294.069164 -1.709884 530.105228
-1296.018649 -1.720775 530.551758
-1297.968135 -1.731666 530.998288
-1299.917620 -1.742557 531.444818
-1301.867105 -1.753448 531.891348
-1303.816590 -1.764338 532.337878
-1305.766075 -1.775229 532.784408
-1307.715560 -1.786120 533.230938
-1309.665045 -1.797011 533.677468
-1311.614530 -1.807902 534.123999
-1313.564016 -1.818793 534.570529
-1315.513501 -1.829684 535.017059
-1317.462986 -1.840575 535.463589
-1319.412471 -1.851466 535.910119
-1321.361956 -1.862357 536.356649
-1323.311441 -1.873248 536.803179
-1325.260926 -1.884139 537.249709
-1327.210411 -1.895030 537.696239
-1329.159897 -1.905921 538.142770
-1331.109382 -1.916812 538.589300
-1333.058867 -1.927703 539.035830
-1335.008352 -1.938594 539.482360
-1336.957837 -1.949485 539.928890
-1338.907322 -1.960376 540.375420
-1340.856807 -1.971267 540.821950
-1342.806292 -1.982158 541.268480
-1344.755778 -1.993049 541.715011
-1346.705263 -2.003940 542.161541
-1348.654748 -2.014831 542.608071
-1350.604233 -2.025722 543.054601
-1352.553718 -2.036613 543.501131
-1354.503203 -2.047504 543.947661
-1356.452688 -2.058395 544.394191
-1358.402173 -2.069286 544.840721
-1360.351659 -2.080177 545.287251
-1362.301144 -2.091068 545.733782
-1364.250629 -2.101959 546.180312
-1366.200114 -2.112850 546.626842
-1368.149599 -2.123741 547.073372
-1370.099084 -2.134632 547.519902
-1372.048569 -2.145523 547.966432
-1373.998054 -2.156414 548.412962
-1375.947540 -2.167305 548.859492
-1377.897025 -2.178196 549.306022
-1379.846510 -2.189087 549.752553
-1381.795995 -2.199978 550.199083
-1383.745480 -2.210869 550.645613
-1385.694965 -2.221760 551.092143
-1387.644450 -2.232651 551.538673
-1389.593935 -2.243542 551.985203
-1391.543421 -2.254433 552.431733
-1393.492906 -2.265323 552.878263
-1395.442391 -2.276214 553.324793
-1397.391876 -2.287105 553.771324
-1399.341361 -2.297996 554.217854
-1401.290846 -2.308887 554.664384
-1403.240331 -2.319778 555.110914
-1405.189816 -2.330669 555.557444
-1407.139301 -2.341560 556.003974
-1409.088787 -2.352451 556.450504
-1411.038272 -2.363342 556.897034
-1412.987757 -2.374233 557.343564
-1414.937242 -2.385124 557.790095
-1416.886727 -2.396015 558.236625
-1418.836212 -2.406906 558.683155
-1420.785697 -2.417797 559.129685
-1422.735182 -2.428688 559.576215
-1424.684668 -2.439579 560.022745
-1426.634153 -2.450470 560.469275
-1428.583638 -2.461361 560.915805
-1430.533123 -2.472252 561.362335
-1432.482608 -2.483143 561.808866
-1434.432093 -2.494034 562.255396
-1436.381578 -2.504925 562.701926
-1438.331063 -2.515816 563.148456
-1440.280549 -2.526707 563.594986
-1442.230034 -2.537598 564.041516
-1444.179519 -2.548489 564.488046
-1446.129004 -2.559380 564.934576
-1448.078489 -2.570271 565.381106
-1450.027974 -2.581162 565.827637
-1451.977459 -2.592053 566.274167
-1453.926944 -2.602944 566.720697
-1455.876430 -2.613835 567.167227
-1457.825915 -2.624726 567.613757
-1459.775400 -2.635617 568.060287
-1461.724885 -2.646508 568.506817
-1463.674370 -2.657399 568.953347
-1465.623855 -2.668290 569.399877
-1467.573340 -2.679181 569.846408
-1469.522825 -2.690072 570.292938
-1471.472311 -2.700963 570.739468
-1473.421796 -2.711854 571.185998
-1475.371281 -2.722745 571.632528
-1477.320766 -2.733636 572.079058
-1479.270251 -2.744527 572.525588
-1481.219736 -2.755418 572.972118
-1483.169221 -2.766308 573.418648
-1485.118706 -2.777199 573.865179
-1487.068192 -2.788090 574.311709
-1489.017677 -2.798981 574.758239
-1490.967162 -2.809872 575.204769
-1492.916647 -2.820763 575.651299
-1494.866132 -2.831654 576.097829
-1496.815617 -2.842545 576.544359
-1498.765102 -2.853436 576.990889
-1500.714587 -2.864327 577.437419
-1502.664073 -2.875218 577.883950
-1504.613558 -2.886109 578.330480
-1506.563043 -2.897000 578.777010
-1508.512528 -2.907891 579.223540
-1510.462013 -2.918782 579.670070
-1512.411498 -2.929673 580.116600
-1514.360983 -2.940564 580.563130
-1516.310468 -2.951455 581.009660
-1518.259954 -2.962346 581.456190
-1520.209439 -2.973237 581.902721
-1522.158924 -2.984128 582.349251
-1524.108409 -2.995019 582.795781
-1526.057894 -3.005910 583.242311
-1528.007379 -3.016801 583.688841
-1529.956864 -3.027692 584.135371
-1531.906349 -3.038583 584.581901
-1533.855835 -3.049474 585.028431
-1535.805320 -3.060365 585.474961
-1537.754805 -3.071256 585.921492
-1539.704290 -3.082147 586.368022
-1541.653775 -3.093038 586.814552
-1543.603260 -3.103929 587.261082
-1545.552745 -3.114820 587.707612
-1547.502230 -3.125711 588.154142
-1549.451715 -3.136602 588.600672
-1551.401201 -3.147493 589.047202
-1553.350686 -3.158384 589.493732
-1555.300171 -3.169275 589.940263
-1557.249656 -3.180166 590.386793
-1559.199141 -3.191057 590.833323
-1561.148626 -3.201948 591.279853
-1563.098111 -3.212839 591.726383
-1565.047596 -3.223730 592.172913
-1566.997082 -3.234621 592.619443
-1568.946567 -3.245512 593.065973
-1570.896052 -3.256403 593.512503
-1572.845537 -3.267294 593.959034
-1574.795022 -3.278184 594.405564
-1576.744507 -3.289075 594.852094
-1578.693992 -3.299966 595.298624
-1580.643477 -3.310857 595.745154
-1582.592963 -3.321748 596.191684
-1584.542448 -3.332639 596.638214
-1586.491933 -3.343530 597.084744
-1588.441418 -3.354421 597.531275
-1590.390903 -3.365312 597.977805
-1592.340388 -3.376203 598.424335
-1594.289873 -3.387094 598.870865
-1596.239358 -3.397985 599.317395
-1598.188844 -3.408876 599.763925
-1600.138329 -3.419767 600.210455
-1602.087814 -3.430658 600.656985
-1604.037299 -3.441549 601.103515
-1605.986784 -3.452440 601.550046
-1607.936269 -3.463331 601.996576
-1609.885754 -3.474222 602.443106
-1611.835239 -3.485113 602.889636
-1613.784725 -3.496004 603.336166
-1615.734210 -3.506895 603.782696
-1617.683695 -3.517786 604.229226
-1619.633180 -3.528677 604.675756
-1621.582665 -3.539568 605.122286
-1623.532150 -3.550459 605.568817
-1625.481635 -3.561350 606.015347
-1627.431120 -3.572241 606.461877
-1629.380606 -3.583132 606.908407
-1631.330091 -3.594023 607.354937
-1633.279576 -3.604914 607.801467
-1635.229061 -3.615805 608.247997
-1637.178546 -3.626696 608.694527
-1639.128031 -3.637587 609.141057
-1641.077516 -3.648478 609.587588
-1643.027001 -3.659369 610.034118
-1644.976487 -3.670260 610.480648
-1646.925972 -3.681151 610.927178
-1648.875457 -3.692042 611.373708
-1650.824942 -3.702933 611.820238
-1652.774427 -3.713824 612.266768
-1654.723912 -3.724715 612.713298
-1656.673397 -3.735606 613.159828
-1658.622882 -3.746497 613.606359
-1660.572368 -3.757388 614.052889
-1662.521853 -3.768279 614.499419
-1664.471338 -3.779169 614.945949
-1666.420823 -3.790060 615.392479
-1668.370308 -3.800951 615.839009
-1670.319793 -3.811842 616.285539
-1672.269278 -3.822733 616.732069
-1674.218763 -3.833624 617.178599
-1676.168248 -3.844515 617.625130
-1678.117734 -3.855406 618.071660
-1680.067219 -3.866297 618.518190
-1682.016704 -3.877188 618.964720
-1683.966189 -3.888079 619.411250
-1685.915674 -3.898970 619.857780
-1687.865159 -3.909861 620.304310
-1689.814644 -3.920752 620.750840
-1691.764129 -3.931643 621.197370
-1693.713615 -3.942534 621.643901
-1695.663100 -3.953425 622.090431
-1697.612585 -3.964316 622.536961
-1699.562070 -3.975207 622.983491
-1701.511555 -3.986098 623.430021
-1704.000000 -4.000000 624.000000
-1705.758162 -4.811459 624.500400
-1707.516324 -5.622919 625.000800
-1709.274486 -6.434378 625.501200
-1711.032648 -7.245838 626.001600
-1712.790810 -8.057297 626.502000
-1714.548972 -8.868756 627.002400
-1716.307134 -9.680216 627.502800
-1718.065296 -10.491675 628.003200
-1719.823458 -11.303134 628.503600
-1721.581620 -12.114594 629.003999
-1723.339782 -12.926053 629.504399
-1725.097944 -13.737513 630.004799
-1726.856106 -14.548972 630.505199
-1728.614268 -15.360431 631.005599
-1730.372430 -16.171891 631.505999
-1732.130592 -16.983350 632.006399
-1733.888754 -17.794809 632.506799
-1735.646916 -18.606269 633.007199
-1737.405078 -19.417728 633.507599
-1739.163240 -20.229188 634.007999
-1740.921402 -21.040647 634.508399
-1742.679564 -21.852106 635.008799
-1744.437726 -22.663566 635.509199
-1746.195888 -23.475025 636.009599
-1747.954050 -24.286484 636.509999
-1749.712212 -25.097944 637.010399
-1751.470374 -25.909403 637.510799
-1753.228536 -26.720863 638.011199
-1754.986698 -27.532322 638.511599
-1756.744860 -28.343781 639.011998
-1758.503022 -29.155241 639.512398
-1760.261184 -29.966700 640.012798
-1762.019346 -30.778159 640.513198
-1763.777508 -31.589619 641.013598
-1765.535670 -32.401078 641.513998
-1767.293831 -33.212538 642.014398
-1769.051993 -34.023997 642.514798
-1770.810155 -34.835456 643.015198
-1772.568317 -35.646916 643.515598
-1774.326479 -36.458375 644.015998
-1776.084641 -37.269834 644.516398
-1777.842803 -38.081294 645.016798
-1779.600965 -38.892753 645.517198
-1781.359127 -39.704213 646.017598
-1783.117289 -40.515672 646.517998
-1784.875451 -41.327131 647.018398
-1786.633613 -42.138591 647.518798
-1788.391775 -42.950050 648.019198
-1790.149937 -43.761510 648.519598
-1791.908099 -44.572969 649.019997
-1793.666261 -45.384428 649.520397
-1795.424423 -46.195888 650.020797
-1797.182585 -47.007347 650.521197
-1798.940747 -47.818806 651.021597
-1800.698909 -48.630266 651.521997
-1802.457071 -49.441725 652.022397
-1804.215233 -50.253185 652.522797
-1805.973395 -51.064644 653.023197
-1807.731557 -51.876103 653.523597
-1809.489719 -52.687563 654.023997
-1811.247881 -53.499022 654.524397
-1813.006043 -54.310481 655.024797
-1814.764205 -55.121941 655.525197
-1816.522367 -55.933400 656.025597
-1818.280529 -56.744860 656.525997
-1820.038691 -57.556319 657.026397
-1821.796853 -58.367778 657.526797
-1823.555015 -59.179238 658.027197
-1825.313177 -59.990697 658.527597
-1827.071339 -60.802156 659.027996
-1828.829501 -61.613616 659.528396
-1830.587663 -62.425075 660.028796
-1832.345825 -63.236535 660.529196
-1834.103987 -64.047994 661.029596
-1835.862149 -64.859453 661.529996
-1837.620311 -65.670913 662.030396
-1839.378473 -66.482372 662.530796
-1841.136635 -67.293831 663.031196
-1842.894797 -68.105291 663.531596
-1844.652959 -68.916750 664.031996
-1846.411121 -69.728210 664.532396
-1848.169283 -70.539669 665.032796
-1849.927445 -71.351128 665.533196
-1851.685607 -72.162588 666.033596
-1853.443769 -72.974047 666.533996
-1855.201931 -73.785507 667.034396
-1856.960093 -74.596966 667.534796
-1858.718255 -75.408425 668.035196
-1860.476417 -76.219885 668.535596
-1862.234579 -77.031344 669.035995
-1863.992741 -77.842803 669.536395
-1865.750903 -78.654263 670.036795
-1867.509065 -79.465722 670.537195
-1869.267227 -80.277182 671.037595
-1871.025389 -81.088641 671.537995
-1872.783551 -81.900100 672.038395
-1874.541713 -82.711560 672.538795
-1876.299875 -83.523019 673.039195
-1878.058037 -84.334478 673.539595
-1879.816199 -85.145938 674.039995
-1881.574361 -85.957397 674.540395
-1883.332523 -86.768857 675.040795
-1885.090685 -87.580316 675.541195
-1886.848847 -88.391775 676.041595
-1888.607009 -89.203235 676.541995
-1890.365170 -90.014694 677.042395
-1892.123332 -90.826153 677.542795
-1893.881494 -91.637613 678.043195
-1895.639656 -92.449072 678.543595
-1897.397818 -93.260532 679.043994
-1899.155980 -94.071991 679.544394
-1900.914142 -94.883450 680.044794
-1902.672304 -95.694910 680.545194
-1904.430466 -96.506369 681.045594
-1906.188628 -97.317828 681.545994
-1907.946790 -98.129288 682.046394
-1909.704952 -98.940747 682.546794
-1911.463114 -99.752207 683.047194
-1913.221276 -100.563666 683.547594
-1914.979438 -101.375125 684.047994
-1916.737600 -102.186585 684.548394
-1918.495762 -102.998044 685.048794
-1920.253924 -103.809503 685.549194
-1922.012086 -104.620963 686.049594
-1923.770248 -105.432422 686.549994
-1925.528410 -106.243882 687.050394
-1927.286572 -107.055341 687.550794
-1929.044734 -107.866800 688.051194
-1930.802896 -108.678260 688.551594
-1932.561058 -109.489719 689.051993
-1934.319220 -110.301179 689.552393
-1936.077382 -111.112638 690.052793
-1937.835544 -111.924097 690.553193
-1939.593706 -112.735557 691.053593
-1941.351868 -113.547016 691.553993
-1943.110030 -114.358475 692.054393
-1944.868192 -115.169935 692.554793
-1946.626354 -115.981394 693.055193
-1948.384516 -116.792854 693.555593
-1950.142678 -117.604313 694.055993
-1951.900840 -118.415772 694.556393
-1953.659002 -119.227232 695.056793
-1955.417164 -120.038691 695.557193
-1957.175326 -120.850150 696.057593
-1958.933488 -121.661610 696.557993
-1960.691650 -122.473069 697.058393
-1964.000000 -124.000000 698.000000
-1964.569183 -125.917298 698.000000
-1965.138367 -127.834595 698.000000
-1965.707550 -129.751893 698.000000
-1966.276733 -131.669191 698.000000
-1966.845917 -133.586488 698.000000
-1967.415100 -135.503786 698.000000
-1967.984283 -137.421084 698.000000
-1968.553466 -139.338381 698.000000
-1969.122650 -141.255679 698.000000
-1969.691833 -143.172977 698.000000
-1970.261016 -145.090274 698.000000
-1970.830200 -147.007572 698.000000
-1971.399383 -148.924870 698.000000
-1971.968566 -150.842167 698.000000
-1972.537750 -152.759465 698.000000
-1973.106933 -154.676763 698.000000
-1973.676116 -156.594060 698.000000
-1974.245300 -158.511358 698.000000
-1974.814483 -160.428656 698.000000
-1975.383666 -162.345953 698.000000
-1975.952849 -164.263251 698.000000
-1976.522033 -166.180549 698.000000
-1977.091216 -168.097846 698.000000
-1977.660399 -170.015144 698.000000
-1978.229583 -171.932442 698.000000
-1978.798766 -173.849739 698.000000
-1979.367949 -175.767037 698.000000
-1979.937133 -177.684335 698.000000
-1980.506316 -179.601632 698.000000
-1981.075499 -181.518930 698.000000
-1981.644683 -183.436228 698.000000
-1982.213866 -185.353525 698.000000
-1982.783049 -187.270823 698.000000
-1983.352232 -189.188121 698.000000
-1983.921416 -191.105419 698.000000
-1984.490599 -193.022716 698.000000
-1985.059782 -194.940014 698.000000
-1985.628966 -196.857312 698.000000
-1986.198149 -198.774609 698.000000
-1986.767332 -200.691907 698.000000
-1987.336516 -202.609205 698.000000
-1987.905699 -204.526502 698.000000
-1988.474882 -206.443800 698.000000
-1989.044066 -208.361098 698.000000
-1989.613249 -210.278395 698.000000
-1990.182432 -212.195693 698.000000
-1990.751616 -214.112991 698.000000
-1991.320799 -216.030288 698.000000
-1991.889982 -217.947586 698.000000
-1992.459165 -219.864884 698.000000
-1993.028349 -221.782181 698.000000
-1993.597532 -223.699479 698.000000
-1994.166715 -225.616777 698.000000
-1994.735899 -227.534074 698.000000
-1995.305082 -229.451372 698.000000
-1995.874265 -231.368670 698.000000
-1996.443449 -233.285967 698.000000
-1997.012632 -235.203265 698.000000
-1997.581815 -237.120563 698.000000
-1998.150999 -239.037860 698.000000
-1998.720182 -240.955158 698.000000
-1999.289365 -242.872456 698.000000
-1999.858548 -244.789753 698.000000
-2000.427732 -246.707051 698.000000
-2000.996915 -248.624349 698.000000
-2001.566098 -250.541646 698.000000
-2002.135282 -252.458944 698.000000
-2002.704465 -254.376242 698.000000
-2003.273648 -256.293539 698.000000
-2003.842832 -258.210837 698.000000
-2004.412015 -260.128135 698.000000
-2004.981198 -262.045432 698.000000
-2005.550382 -263.962730 698.000000
-2006.119565 -265.880028 698.000000
-2006.688748 -267.797325 698.000000
-2007.257931 -269.714623 698.000000
-2007.827115 -271.631921 698.000000
-2008.396298 -273.549218 698.000000
-2008.965481 -275.466516 698.000000
-2009.534665 -277.383814 698.000000
-2010.103848 -279.301111 698.000000
-2010.673031 -281.218409 698.000000
-2011.242215 -283.135707 698.000000
-2011.811398 -285.053004 698.000000
-2012.380581 -286.970302 698.000000
-2012.949765 -288.887600 698.000000
-2013.518948 -290.804897 698.000000
-2014.088131 -292.722195 698.000000
-2014.657314 -294.639493 698.000000
-2015.226498 -296.556790 698.000000
-2015.795681 -298.474088 698.000000
-2016.364864 -300.391386 698.000000
-2016.934048 -302.308683 698.000000
-2017.503231 -304.225981 698.000000
-2018.072414 -306.143279 698.000000
-2018.641598 -308.060576 698.000000
-2019.210781 -309.977874 698.000000
-2019.779964 -311.895172 698.000000
-2020.349148 -313.812469 698.000000
-2020.918331 -315.729767 698.000000
-2021.487514 -317.647065 698.000000
-2022.056697 -319.564362 698.000000
-2022.625881 -321.481660 698.000000
-2023.195064 -323.398958 698.000000
-2023.764247 -325.316256 698.000000
-2024.333431 -327.233553 698.000000
-2024.902614 -329.150851 698.000000
-2025.471797 -331.068149 698.000000
-2026.040981 -332.985446 698.000000
-2026.610164 -334.902744 698.000000
-2027.179347 -336.820042 698.000000
-2027.748531 -338.737339 698.000000
-2028.317714 -340.654637 698.000000
-2028.886897 -342.571935 698.000000
-2029.456081 -344.489232 698.000000
-2030.025264 -346.406530 698.000000
-2030.594447 -348.323828 698.000000
-2031.163630 -350.241125 698.000000
-2031.732814 -352.158423 698.000000
-2032.301997 -354.075721 698.000000
-2032.871180 -355.993018 698.000000
-2033.440364 -357.910316 698.000000
-2034.009547 -359.827614 698.000000
-2034.578730 -361.744911 698.000000
-2035.147914 -363.662209 698.000000
-2035.717097 -365.579507 698.000000
-2036.286280 -367.496804 698.000000
-2036.855464 -369.414102 698.000000
-2037.424647 -371.331400 698.000000
-2037.993830 -373.248697 698.000000
-2038.563013 -375.165995 698.000000
-2039.132197 -377.083293 698.000000
-2039.701380 -379.000590 698.000000
-2040.270563 -380.917888 698.000000
-2040.839747 -382.835186 698.000000
-2041.408930 -384.752483 698.000000
-2041.978113 -386.669781 698.000000
-2042.547297 -388.587079 698.000000
-2043.116480 -390.504376 698.000000
-2043.685663 -392.421674 698.000000
-2044.254847 -394.338972 698.000000
-2044.824030 -396.256269 698.000000
-2045.393213 -398.173567 698.000000
-2045.962396 -400.090865 698.000000
-2046.531580 -402.008162 698.000000
-2047.100763 -403.925460 698.000000
-2047.669946 -405.842758 698.000000
-2048.239130 -407.760055 698.000000
-2048.808313 -409.677353 698.000000
-2049.377496 -411.594651 698.000000
-2049.946680 -413.511948 698.000000
-2050.515863 -415.429246 698.000000
-2051.085046 -417.346544 698.000000
-2052.000000 -420.428571 698.000000
-2052.967726 -420.471773 696.250246
-2053.935451 -420.514976 694.500491
-2054.903177 -420.558178 692.750737
-2055.870902 -420.601380 691.000982
-2056.838628 -420.644582 689.251228
-2057.806354 -420.687784 687.501473
-2058.774079 -420.730986 685.751719
-2059.741805 -420.774188 684.001964
-2060.709531 -420.817390 682.252210
-2061.677256 -420.860592 680.502455
-2062.644982 -420.903794 678.752701
-2063.612707 -420.946996 677.002946
-2064.580433 -420.990198 675.253192
-2065.548159 -421.033400 673.503437
-2066.515884 -421.076602 671.753683
-2067.483610 -421.119804 670.003928
-2068.451335 -421.163006 668.254174
-2069.419061 -421.206208 666.504419
-2070.386787 -421.249410 664.754665
-2071.354512 -421.292612 663.004911
-2072.322238 -421.335814 661.255156
-2073.289963 -421.379016 659.505402
-2074.257689 -421.422218 657.755647
-2075.225415 -421.465420 656.005893
-2076.193140 -421.508622 654.256138
-2077.160866 -421.551824 652.506384
-2078.128592 -421.595026 650.756629
-2079.096317 -421.638228 649.006875
-2080.064043 -421.681430 647.257120
-2081.031768 -421.724633 645.507366
-2081.999494 -421.767835 643.757611
-2082.967220 -421.811037 642.007857
-2083.934945 -421.854239 640.258102
-2084.902671 -421.897441 638.508348
-2085.870396 -421.940643 636.758593
-2086.838122 -421.983845 635.008839
-2087.805848 -422.027047 633.259084
-2088.773573 -422.070249 631.509330
-2089.741299 -422.113451 629.759575
-2090.709025 -422.156653 628.009821
-2091.676750 -422.199855 626.260067
-2092.644476 -422.243057 624.510312
-2093.612201 -422.286259 622.760558
-2094.579927 -422.329461 621.010803
-2095.547653 -422.372663 619.261049
-2096.515378 -422.415865 617.511294
-2097.483104 -422.459067 615.761540
-2098.450829 -422.502269 614.011785
-2099.418555 -422.545471 612.262031
-2100.386281 -422.588673 610.512276
-2101.354006 -422.631875 608.762522
-2102.321732 -422.675077 607.012767
-2103.289458 -422.718279 605.263013
-2104.257183 -422.761481 603.513258
-2105.224909 -422.804683 601.763504
-2106.192634 -422.847885 600.013749
-2107.160360 -422.891087 598.263995
-2108.128086 -422.934290 596.514240
-2109.095811 -422.977492 594.764486
-2110.063537 -423.020694 593.014732
-2111.031262 -423.063896 591.264977
-2111.998988 -423.107098 589.515223
-2112.966714 -423.150300 587.765468
-2113.934439 -423.193502 586.015714
-2114.902165 -423.236704 584.265959
-2115.869890 -423.279906 582.516205
-2116.837616 -423.323108 580.766450
-2117.805342 -423.366310 579.016696
-2118.773067 -423.409512 577.266941
-2119.740793 -423.452714 575.517187
-2120.708519 -423.495916 573.767432
-2121.676244 -423.539118 572.017678
-2122.643970 -423.582320 570.267923
-2123.611695 -423.625522 568.518169
-2124.579421 -423.668724 566.768414
-2125.547147 -423.711926 565.018660
-2126.514872 -423.755128 563.268905
-2127.482598 -423.798330 561.519151
-2128.450323 -423.841532 559.769397
-2129.418049 -423.884734 558.019642
-2130.385775 -423.927936 556.269888
-2131.353500 -423.971138 554.520133
-2132.321226 -424.014340 552.770379
-2133.288952 -424.057542 551.020624
-2134.256677 -424.100745 549.270870
-2135.224403 -424.143947 547.521115
-2136.192128 -424.187149 545.771361
-2137.159854 -424.230351 544.021606
-2138.127580 -424.273553 542.271852
-2139.095305 -424.316755 540.522097
-2140.063031 -424.359957 538.772343
-2141.030756 -424.403159 537.022588
-2141.998482 -424.446361 535.272834
-2142.966208 -424.489563 533.523079
-2143.933933 -424.532765 531.773325
-2144.901659 -424.575967 530.023570
-2145.869385 -424.619169 528.273816
-2146.837110 -424.662371 526.524062
-2147.804836 -424.705573 524.774307
-2148.772561 -424.748775 523.024553
-2149.740287 -424.791977 521.274798
-2150.708013 -424.835179 519.525044
-2151.675738 -424.878381 517.775289
-2152.643464 -424.921583 516.025535
-2153.611189 -424.964785 514.275780
-2154.578915 -425.007987 512.526026
-2155.546641 -425.051189 510.776271
-2156.514366 -425.094391 509.026517
-2157.482092 -425.137593 507.276762
-2158.449817 -425.180795 505.527008
-2159.417543 -425.223997 503.777253
-2160.385269 -425.267199 502.027499
-2161.352994 -425.310402 500.277744
-2162.320720 -425.353604 498.527990
-2163.288446 -425.396806 496.778235
-2164.256171 -425.440008 495.028481
-2165.223897 -425.483210 493.278726
-2166.191622 -425.526412 491.528972
-2167.159348 -425.569614 489.779218
-2168.127074 -425.612816 488.029463
-2169.094799 -425.656018 486.279709
-2170.062525 -425.699220 484.529954
-2171.030250 -425.742422 482.780200
-2171.997976 -425.785624 481.030445
-2172.965702 -425.828826 479.280691
-2173.933427 -425.872028 477.530936
-2174.901153 -425.915230 475.781182
-2175.868879 -425.958432 474.031427
-2176.836604 -426.001634 472.281673
-2177.804330 -426.044836 470.531918
-2178.772055 -426.088038 468.782164
-2179.739781 -426.131240 467.032409
-2180.707507 -426.174442 465.282655
-2181.675232 -426.217644 463.532900
-2182.642958 -426.260846 461.783146
-2183.610683 -426.304048 460.033391
-2184.578409 -426.347250 458.283637
-2185.546135 -426.390452 456.533883
-2186.513860 -426.433654 454.784128
-2187.481586 -426.476857 453.034374
-2188.449312 -426.520059 451.284619
-2189.417037 -426.563261 449.534865
-2190.384763 -426.606463 447.785110
-2191.352488 -426.649665 446.035356
-2192.320214 -426.692867 444.285601
-2193.287940 -426.736069 442.535847
-2194.255665 -426.779271 440.786092
-2195.223391 -426.822473 439.036338
-2196.191116 -426.865675 437.286583
-2197.158842 -426.908877 435.536829
-2198.126568 -426.952079 433.787074
-2199.094293 -426.995281 432.037320
-2200.062019 -427.038483 430.287565
-2201.029744 -427.081685 428.537811
-2201.997470 -427.124887 426.788056
-2202.965196 -427.168089 425.038302
-2203.932921 -427.211291 423.288548
-2204.900647 -427.254493 421.538793
-2205.868373 -427.297695 419.789039
-2206.836098 -427.340897 418.039284
-2207.803824 -427.384099 416.289530
-2208.771549 -427.427301 414.539775
-2209.739275 -427.470503 412.790021
-2210.707001 -427.513705 411.040266
-2212.000000 -427.571429 408.702381
-2213.999992 -427.577068 408.702381
-2215.999984 -427.582707 408.702381
-2217.999976 -427.588346 408.702381
-2219.999968 -427.593985 408.702381
-2221.999960 -427.599624 408.702381
-2223.999952 -427.605263 408.702381
-2225.999944 -427.610902 408.702381
-2227.999936 -427.616541 408.702381
-2229.999928 -427.622180 408.702381
-2231.999921 -427.627819 408.702381
-2233.999913 -427.633458 408.702381
-2235.999905 -427.639097 408.702381
-2237.999897 -427.644737 408.702381
-2239.999889 -427.650376 408.702381
-2241.999881 -427.656015 408.702381
-2243.999873 -427.661654 408.702381
-2245.999865 -427.667293 408.702381
-2247.999857 -427.672932 408.702381
-2249.999849 -427.678571 408.702381
-2251.999841 -427.684210 408.702381
-2253.999833 -427.689849 408.702381
-2255.999825 -427.695488 408.702381
-2257.999817 -427.701127 408.702381
-2259.999809 -427.706766 408.702381
-2261.999801 -427.712405 408.702381
-2263.999793 -427.718045 408.702381
-2265.999785 -427.723684 408.702381
-2267.999777 -427.729323 408.702381
-2269.999769 -427.734962 408.702381
-2271.999762 -427.740601 408.702381
-2273.999754 -427.746240 408.702381
-2275.999746 -427.751879 408.702381
-2277.999738 -427.757518 408.702381
-2279.999730 -427.763157 408.702381
-2281.999722 -427.768796 408.702381
-2283.999714 -427.774435 408.702381
-2285.999706 -427.780074 408.702381
-2287.999698 -427.785713 408.702381
-2289.999690 -427.791353 408.702381
-2291.999682 -427.796992 408.702381
-2293.999674 -427.802631 408.702381
-2295.999666 -427.808270 408.702381
-2297.999658 -427.813909 408.702381
-2299.999650 -427.819548 408.702381
-2301.999642 -427.825187 408.702381
-2303.999634 -427.830826 408.702381
-2305.999626 -427.836465 408.702381
-2307.999618 -427.842104 408.702381
-2309.999610 -427.847743 408.702381
-2311.999603 -427.853382 408.702381
-2313.999595 -427.859021 408.702381
-2315.999587 -427.864660 408.702381
-2317.999579 -427.870300 408.702381
-2319.999571 -427.875939 408.702381
-2321.999563 -427.881578 408.702381
-2323.999555 -427.887217 408.702381
-2325.999547 -427.892856 408.702381
-2327.999539 -427.898495 408.702381
-2329.999531 -427.904134 408.702381
-2331.999523 -427.909773 408.702381
-2333.999515 -427.915412 408.702381
-2335.999507 -427.921051 408.702381
-2337.999499 -427.926690 408.702381
-2339.999491 -427.932329 408.702381
-2341.999483 -427.937968 408.702381
-2343.999475 -427.943608 408.702381
-2345.999467 -427.949247 408.702381
-2347.999459 -427.954886 408.702381
-2349.999451 -427.960525 408.702381
-2351.999444 -427.966164 408.702381
-2353.999436 -427.971803 408.702381
-2355.999428 -427.977442 408.702381
-2357.999420 -427.983081 408.702381
-2359.999412 -427.988720 408.702381
-2361.999404 -427.994359 408.702381
-2364.000000 -428.000000 408.702381
-2365.229506 -428.000000 410.279820
-2366.459012 -428.000000 411.857260
-2367.688518 -428.000000 413.434699
-2368.918025 -428.000000 415.012138
-2370.147531 -428.000000 416.589577
-2371.377037 -428.000000 418.167017
-2372.606543 -428.000000 419.744456
-2373.836049 -428.000000 421.321895
-2375.065555 -428.000000 422.899334
-2376.295061 -428.000000 424.476774
-2377.524567 -428.000000 426.054213
-2378.754074 -428.000000 427.631652
-2379.983580 -428.000000 429.209092
-2381.213086 -428.000000 430.786531
-2382.442592 -428.000000 432.363970
-2383.672098 -428.000000 433.941409
-2384.901604 -428.000000 435.518849
-2386.131110 -428.000000 437.096288
-2387.360616 -428.000000 438.673727
-2388.590123 -428.000000 440.251167
-2389.819629 -428.000000 441.828606
-2391.049135 -428.000000 443.406045
-2392.278641 -428.000000 444.983484
-2393.508147 -428.000000 446.560924
-2394.737653 -428.000000 448.138363
-2395.967159 -428.000000 449.715802
-2397.196665 -428.000000 451.293242
-2398.426172 -428.000000 452.870681
-2399.655678 -428.000000 454.448120
-2400.885184 -428.000000 456.025559
-2402.114690 -428.000000 457.602999
-2403.344196 -428.000000 459.180438
-2404.573702 -428.000000 460.757877
-2405.803208 -428.000000 462.335317
-2407.032714 -428.000000 463.912756
-2408.262221 -428.000000 465.490195
-2409.491727 -428.000000 467.067634
-2410.721233 -428.000000 468.645074
-2412.000000 -428.000000 470.285714
-2413.622603 -427.780492 471.434180
-2415.245207 -427.560984 472.582646
-2416.867810 -427.341476 473.731112
-2418.490414 -427.121968 474.879579
-2420.113017 -426.902460 476.028045
-2421.735621 -426.682952 477.176511
-2423.358224 -426.463444 478.324977
-2424.980827 -426.243936 479.473443
-2426.603431 -426.024428 480.621909
-2428.226034 -425.804920 481.770375
-2429.848638 -425.585412 482.918841
-2431.471241 -425.365904 484.067307
-2433.093845 -425.146395 485.215773
-2434.716448 -424.926887 486.364239
-2436.339052 -424.707379 487.512705
-2437.961655 -424.487871 488.661171
-2439.584258 -424.268363 489.809637
-2441.206862 -424.048855 490.958104
-2442.829465 -423.829347 492.106570
-2444.452069 -423.609839 493.255036
-2446.074672 -423.390331 494.403502
-2447.697276 -423.170823 495.551968
-2449.319879 -422.951315 496.700434
-2450.942482 -422.731807 497.848900
-2452.565086 -422.512299 498.997366
-2454.187689 -422.292791 500.145832
-2455.810293 -422.073283 501.294298
-2457.432896 -421.853775 502.442764
-2459.055500 -421.634267 503.591230
-2460.678103 -421.414759 504.739696
-2462.300707 -421.195251 505.888162
-2463.923310 -420.975743 507.036628
-2465.545913 -420.756235 508.185095
-2467.168517 -420.536727 509.333561
-2468.791120 -420.317219 510.482027
-2470.413724 -420.097711 511.630493
-2472.036327 -419.878202 512.778959
-2473.658931 -419.658694 513.927425
-2475.281534 -419.439186 515.075891
-2476.904137 -419.219678 516.224357
-2478.526741 -419.000170 517.372823
-2480.149344 -418.780662 518.521289
-2481.771948 -418.561154 519.669755
-2483.394551 -418.341646 520.818221
-2485.017155 -418.122138 521.966687
-2486.639758 -417.902630 523.115153
-2488.262361 -417.683122 524.263619
-2489.884965 -417.463614 525.412086
-2491.507568 -417.244106 526.560552
-2493.130172 -417.024598 527.709018
-2494.752775 -416.805090 528.857484
-2496.375379 -416.585582 530.005950
-2497.997982 -416.366074 531.154416
-2499.620586 -416.146566 532.302882
-2501.243189 -415.927058 533.451348
-2502.865792 -415.707550 534.599814
-2504.488396 -415.488042 535.748280
-2506.110999 -415.268534 536.896746
-2507.733603 -415.049026 538.045212
-2509.356206 -414.829518 539.193678
-2510.978810 -414.610010 540.342144
-2512.601413 -414.390501 541.490611
-2514.224016 -414.170993 542.639077
-2515.846620 -413.951485 543.787543
-2517.469223 -413.731977 544.936009
-2519.091827 -413.512469 546.084475
-2520.714430 -413.292961 547.232941
-2522.337034 -413.073453 548.381407
-2523.959637 -412.853945 549.529873
-2525.582241 -412.634437 550.678339
-2527.204844 -412.414929 551.826805
-2528.827447 -412.195421 552.975271
-2530.450051 -411.975913 554.123737
-2532.072654 -411.756405 555.272203
-2533.695258 -411.536897 556.420669
-2535.317861 -411.317389 557.569135
-2536.940465 -411.097881 558.717602
-2538.563068 -410.878373 559.866068
-2540.185671 -410.658865 561.014534
-2541.808275 -410.439357 562.163000
-2543.430878 -410.219849 563.311466
-2545.053482 -410.000341 564.459932
-2546.676085 -409.780833 565.608398
-2548.298689 -409.561325 566.756864
-2549.921292 -409.341817 567.905330
-2551.543895 -409.122309 569.053796
-2553.166499 -408.902800 570.202262
-2554.789102 -408.683292 571.350728
-2556.411706 -408.463784 572.499194
-2558.034309 -408.244276 573.647660
-2559.656913 -408.024768 574.796126
-2561.279516 -407.805260 575.944593
-2562.902120 -407.585752 577.093059
-2564.524723 -407.366244 578.241525
-2566.147326 -407.146736 579.389991
-2567.769930 -406.927228 580.538457
-2569.392533 -406.707720 581.686923
-2571.015137 -406.488212 582.835389
-2572.637740 -406.268704 583.983855
-2574.260344 -406.049196 585.132321
-2575.882947 -405.829688 586.280787
-2577.505550 -405.610180 587.429253
-2579.128154 -405.390672 588.577719
-2580.750757 -405.171164 589.726185
-2582.373361 -404.951656 590.874651
-2583.995964 -404.732148 592.023118
-2585.618568 -404.512640 593.171584
-2587.241171 -404.293132 594.320050
-2588.863775 -404.073624 595.468516
-2590.486378 -403.854116 596.616982
-2592.108981 -403.634607 597.765448
-2593.731585 -403.415099 598.913914
-2595.354188 -403.195591 600.062380
-2596.976792 -402.976083 601.210846
-2598.599395 -402.756575 602.359312
-2600.221999 -402.537067 603.507778
-2601.844602 -402.317559 604.656244
-2603.467205 -402.098051 605.804710
-2605.089809 -401.878543 606.953176
-2606.712412 -401.659035 608.101642
-2608.335016 -401.439527 609.250109
-2609.957619 -401.220019 610.398575
-2611.580223 -401.000511 611.547041
-2613.202826 -400.781003 612.695507
-2614.825429 -400.561495 613.843973
-2616.448033 -400.341987 614.992439
-2618.070636 -400.122479 616.140905
-2619.693240 -399.902971 617.289371
-2621.315843 -399.683463 618.437837
-2622.938447 -399.463955 619.586303
-2624.561050 -399.244447 620.734769
-2626.183654 -399.024939 621.883235
-2627.806257 -398.805431 623.031701
-2629.428860 -398.585923 624.180167
-2632.000000 -398.238095 626.000000
-2633.991449 -398.197960 626.180328
-2635.982899 -398.157825 626.360656
-2637.974348 -398.117690 626.540984
-2639.965798 -398.077555 626.721312
-2641.957247 -398.037420 626.901641
-2643.948697 -397.997284 627.081969
-2645.940146 -397.957149 627.262297
-2647.931596 -397.917014 627.442625
-2649.923045 -397.876879 627.622953
-2651.914495 -397.836744 627.803281
-2653.905944 -397.796609 627.983609
-2655.897394 -397.756474 628.163937
-2657.888843 -397.716338 628.344265
-2659.880292 -397.676203 628.524593
-2661.871742 -397.636068 628.704922
-2663.863191 -397.595933 628.885250
-2665.854641 -397.555798 629.065578
-2667.846090 -397.515663 629.245906
-2669.837540 -397.475528 629.426234
-2671.828989 -397.435393 629.606562
-2673.820439 -397.395257 629.786890
-2675.811888 -397.355122 629.967218
-2677.803338 -397.314987 630.147546
-2679.794787 -397.274852 630.327874
-2681.786236 -397.234717 630.508203
-2683.777686 -397.194582 630.688531
-2685.769135 -397.154447 630.868859
-2687.760585 -397.114311 631.049187
-2689.752034 -397.074176 631.229515
-2691.743484 -397.034041 631.409843
-2693.734933 -396.993906 631.590171
-2695.726383 -396.953771 631.770499
-2697.717832 -396.913636 631.950827
-2699.709282 -396.873501 632.131155
-2701.700731 -396.833365 632.311484
-2703.692181 -396.793230 632.491812
-2705.683630 -396.753095 632.672140
-2707.675079 -396.712960 632.852468
-2709.666529 -396.672825 633.032796
-2711.657978 -396.632690 633.213124
-2713.649428 -396.592555 633.393452
-2715.640877 -396.552420 633.573780
-2717.632327 -396.512284 633.754108
-2719.623776 -396.472149 633.934436
-2721.615226 -396.432014 634.114765
-2723.606675 -396.391879 634.295093
-2725.598125 -396.351744 634.475421
-2727.589574 -396.311609 634.655749
-2729.581023 -396.271474 634.836077
-2731.572473 -396.231338 635.016405
-2733.563922 -396.191203 635.196733
-2735.555372 -396.151068 635.377061
-2737.546821 -396.110933 635.557389
-2739.538271 -396.070798 635.737717
-2741.529720 -396.030663 635.918046
-2743.521170 -395.990528 636.098374
-2745.512619 -395.950392 636.278702
-2747.504069 -395.910257 636.459030
-2749.495518 -395.870122 636.639358
-2751.486968 -395.829987 636.819686
-2753.478417 -395.789852 637.000014
-2755.469866 -395.749717 637.180342
-2757.461316 -395.709582 637.360670
-2759.452765 -395.669447 637.540998
-2761.444215 -395.629311 637.721327
-2763.435664 -395.589176 637.901655
-2765.427114 -395.549041 638.081983
-2767.418563 -395.508906 638.262311
-2769.410013 -395.468771 638.442639
-2771.401462 -395.428636 638.622967
-2773.392912 -395.388501 638.803295
-2775.384361 -395.348365 638.983623
-2777.375810 -395.308230 639.163951
-2779.367260 -395.268095 639.344279
-2781.358709 -395.227960 639.524608
-2783.350159 -395.187825 639.704936
-2785.341608 -395.147690 639.885264
-2787.333058 -395.107555 640.065592
-2789.324507 -395.067419 640.245920
-2791.315957 -395.027284 640.426248
-2793.307406 -394.987149 640.606576
-2795.298856 -394.947014 640.786904
-2797.290305 -394.906879 640.967232
-2799.281755 -394.866744 641.147560
-2801.273204 -394.826609 641.327889
-2803.264653 -394.786474 641.508217
-2805.256103 -394.746338 641.688545
-2807.247552 -394.706203 641.868873
-2809.239002 -394.666068 642.049201
-2811.230451 -394.625933 642.229529
-2813.221901 -394.585798 642.409857
-2815.213350 -394.545663 642.590185
-2817.204800 -394.505528 642.770513
-2819.196249 -394.465392 642.950841
-2821.187699 -394.425257 643.131170
-2823.179148 -394.385122 643.311498
-2825.170598 -394.344987 643.491826
-2827.162047 -394.304852 643.672154
-2829.153496 -394.264717 643.852482
-2831.144946 -394.224582 644.032810
-2833.136395 -394.184446 644.213138
-2835.127845 -394.144311 644.393466
-2837.119294 -394.104176 644.573794
-2839.110744 -394.064041 644.754122
-2841.102193 -394.023906 644.934451
-2843.093643 -393.983771 645.114779
-2845.085092 -393.943636 645.295107
-2847.076542 -393.903501 645.475435
-2849.067991 -393.863365 645.655763
-2851.059440 -393.823230 645.836091
-2853.050890 -393.783095 646.016419
-2855.042339 -393.742960 646.196747
-2857.033789 -393.702825 646.377075
-2859.025238 -393.662690 646.557403
-2861.016688 -393.622555 646.737732
-2863.008137 -393.582419 646.918060
-2864.999587 -393.542284 647.098388
-2866.991036 -393.502149 647.278716
-2868.982486 -393.462014 647.459044
-2870.973935 -393.421879 647.639372
-2872.965385 -393.381744 647.819700
-2874.956834 -393.341609 648.000028
-2876.948283 -393.301473 648.180356
-2878.939733 -393.261338 648.360684
-2880.931182 -393.221203 648.541013
-2882.922632 -393.181068 648.721341
-2884.914081 -393.140933 648.901669
-2886.905531 -393.100798 649.081997
-2888.896980 -393.060663 649.262325
-2890.888430 -393.020528 649.442653
-2892.879879 -392.980392 649.622981
-2894.871329 -392.940257 649.803309
-2896.862778 -392.900122 649.983637
-2898.854227 -392.859987 650.163965
-2900.845677 -392.819852 650.344294
-2902.837126 -392.779717 650.524622
-2904.828576 -392.739582 650.704950
-2906.820025 -392.699446 650.885278
-2908.811475 -392.659311 651.065606
-2910.802924 -392.619176 651.245934
-2912.794374 -392.579041 651.426262
-2914.785823 -392.538906 651.606590
-2916.777273 -392.498771 651.786918
-2918.768722 -392.458636 651.967246
-2920.760172 -392.418500 652.147575
-2922.751621 -392.378365 652.327903
-2924.743070 -392.338230 652.508231
-2926.734520 -392.298095 652.688559
-2928.725969 -392.257960 652.868887
-2930.717419 -392.217825 653.049215
-2932.708868 -392.177690 653.229543
-2934.700318 -392.137555 653.409871
-2936.691767 -392.097419 653.590199
-2938.683217 -392.057284 653.770527
-2940.674666 -392.017149 653.950856
-2942.666116 -391.977014 654.131184
-2944.657565 -391.936879 654.311512
-2946.649014 -391.896744 654.491840
-2948.640464 -391.856609 654.672168
-2950.631913 -391.816473 654.852496
-2952.623363 -391.776338 655.032824
-2954.614812 -391.736203 655.213152
-2956.606262 -391.696068 655.393480
-2958.597711 -391.655933 655.573808
-2960.589161 -391.615798 655.754137
-2962.580610 -391.575663 655.934465
-2964.572060 -391.535527 656.114793
-2966.563509 -391.495392 656.295121
-2968.554959 -391.455257 656.475449
-2970.546408 -391.415122 656.655777
-2972.537857 -391.374987 656.836105
-2974.529307 -391.334852 657.016433
-2976.520756 -391.294717 657.196761
-2978.512206 -391.254582 657.377090
-2980.503655 -391.214446 657.557418
-2982.495105 -391.174311 657.737746
-2984.486554 -391.134176 657.918074
-2986.478004 -391.094041 658.098402
-2988.469453 -391.053906 658.278730
-2990.460903 -391.013771 658.459058
-2992.452352 -390.973636 658.639386
-2994.443802 -390.933500 658.819714
-2996.435251 -390.893365 659.000042
-2998.426700 -390.853230 659.180371
-3000.418150 -390.813095 659.360699
-3002.409599 -390.772960 659.541027
-3004.401049 -390.732825 659.721355
-3006.392498 -390.692690 659.901683
-3008.383948 -390.652554 660.082011
-3010.375397 -390.612419 660.262339
-3012.366847 -390.572284 660.442667
-3014.358296 -390.532149 660.622995
-3016.349746 -390.492014 660.803323
-3018.341195 -390.451879 660.983652
-3020.332644 -390.411744 661.163980
-3022.324094 -390.371609 661.344308
-3024.315543 -390.331473 661.524636
-3026.306993 -390.291338 661.704964
-3028.298442 -390.251203 661.885292
-3030.289892 -390.211068 662.065620
-3032.281341 -390.170933 662.245948
-3034.272791 -390.130798 662.426276
-3036.264240 -390.090663 662.606604
-3038.255690 -390.050527 662.786933
-3040.247139 -390.010392 662.967261
-3042.238589 -389.970257 663.147589
-3044.230038 -389.930122 663.327917
-3046.221487 -389.889987 663.508245
-3048.212937 -389.849852 663.688573
-3050.204386 -389.809717 663.868901
-3052.195836 -389.769581 664.049229
-3054.187285 -389.729446 664.229557
-3056.178735 -389.689311 664.409885
-3058.170184 -389.649176 664.590214
-3060.161634 -389.609041 664.770542
-3062.153083 -389.568906 664.950870
-3064.144533 -389.528771 665.131198
-3066.135982 -389.488636 665.311526
-3068.127431 -389.448500 665.491854
-3070.118881 -389.408365 665.672182
-3072.110330 -389.368230 665.852510
-3074.101780 -389.328095 666.032838
-3076.093229 -389.287960 666.213166
-3078.084679 -389.247825 666.393495
-3080.076128 -389.207690 666.573823
-3082.067578 -389.167554 666.754151
-3084.059027 -389.127419 666.934479
-3086.050477 -389.087284 667.114807
-3088.041926 -389.047149 667.295135
-3090.033376 -389.007014 667.475463
-3092.024825 -388.966879 667.655791
-3094.016274 -388.926744 667.836119
-3096.007724 -388.886608 668.016447
-3097.999173 -388.846473 668.196776
-3099.990623 -388.806338 668.377104
-3101.982072 -388.766203 668.557432
-3103.973522 -388.726068 668.737760
-3105.964971 -388.685933 668.918088
-3107.956421 -388.645798 669.098416
-3109.947870 -388.605663 669.278744
-3111.939320 -388.565527 669.459072
-3113.930769 -388.525392 669.639400
-3115.922218 -388.485257 669.819728
-3117.913668 -388.445122 670.000057
-3119.905117 -388.404987 670.180385
-3121.896567 -388.364852 670.360713
-3123.888016 -388.324717 670.541041
-3125.879466 -388.284581 670.721369
-3127.870915 -388.244446 670.901697
-3129.862365 -388.204311 671.082025
-3131.853814 -388.164176 671.262353
-3133.845264 -388.124041 671.442681
-3135.836713 -388.083906 671.623009
-3137.828163 -388.043771 671.803338
-3140.000000 -388.000000 672.000000
-3141.200400 -389.224898 670.971086
-3142.400800 -390.449796 669.942171
-3143.601200 -391.674694 668.913257
-3144.801600 -392.899592 667.884343
-3146.002000 -394.124490 666.855428
-3147.202400 -395.349388 665.826514
-3148.402800 -396.574286 664.797600
-3149.603200 -397.799184 663.768685
-3150.803600 -399.024082 662.739771
-3152.004000 -400.248980 661.710857
