-24.000000 8.000000 440.000000
-24.000000 7.745671 438.016237
-24.000000 7.491343 436.032473
-24.000000 7.237014 434.048710
-24.000000 6.982685 432.064947
-24.000000 6.728357 430.081183
-24.000000 6.474028 428.097420
-24.000000 6.219700 426.113657
-24.000000 5.965371 424.129893
-24.000000 5.711042 422.146130
-24.000000 5.456714 420.162367
-24.000000 5.202385 418.178603
-24.000000 4.948056 416.194840
-24.000000 4.693728 414.211077
-24.000000 4.439399 412.227313
-24.000000 4.185071 410.243550
-24.000000 3.930742 408.259787
-24.000000 3.676413 406.276023
-24.000000 3.422085 404.292260
-24.000000 3.167756 402.308497
-24.000000 2.913427 400.324733
-24.000000 2.659099 398.340970
-24.000000 2.404770 396.357207
-24.000000 2.150441 394.373443
-24.000000 1.896113 392.389680
-24.000000 1.641784 390.405917
-24.000000 1.387456 388.422153
-24.000000 1.133127 386.438390
-24.000000 0.878798 384.454627
-24.000000 0.624470 382.470863
-24.000000 0.370141 380.487100
-24.000000 0.115812 378.503337
-24.000000 -0.138516 376.519573
-24.000000 -0.392845 374.535810
-24.000000 -0.647173 372.552047
-24.000000 -0.901502 370.568283
-24.000000 -1.155831 368.584520
-24.000000 -1.410159 366.600757
-24.000000 -1.664488 364.616993
-24.000000 -1.918817 362.633230
-24.000000 -2.173145 360.649467
-24.000000 -2.427474 358.665703
-24.000000 -2.681803 356.681940
-24.000000 -2.936131 354.698177
-24.000000 -3.190460 352.714414
-24.000000 -3.444788 350.730650
-24.000000 -3.699117 348.746887
-24.000000 -3.953446 346.763124
-24.000000 -4.207774 344.779360
-24.000000 -4.462103 342.795597
-24.000000 -4.716432 340.811834
-24.000000 -4.970760 338.828070
-24.000000 -5.225089 336.844307
-24.000000 -5.479417 334.860544
-24.000000 -5.733746 332.876780
-24.000000 -5.988075 330.893017
-24.000000 -6.242403 328.909254
-24.000000 -6.496732 326.925490
-24.000000 -6.751061 324.941727
-24.000000 -7.005389 322.957964
-24.000000 -7.259718 320.974200
-24.000000 -7.514047 318.990437
-24.000000 -7.768375 317.006674
-24.000000 -8.022704 315.022910
-24.000000 -8.277032 313.039147
-24.000000 -8.531361 311.055384
-24.000000 -8.785690 309.071620
-24.000000 -9.040018 307.087857
-24.000000 -9.294347 305.104094
-24.000000 -9.548676 303.120330
-24.000000 -9.803004 301.136567
-24.000000 -10.057333 299.152804
-24.000000 -10.311662 297.169040
-24.000000 -10.565990 295.185277
-24.000000 -10.820319 293.201514
-24.000000 -11.074647 291.217750
-24.000000 -11.328976 289.233987
-24.000000 -11.583305 287.250224
-24.000000 -11.837633 285.266460
-24.000000 -12.091962 283.282697
-24.000000 -12.346291 281.298934
-24.000000 -12.600619 279.315170
-24.000000 -12.854948 277.331407
-24.000000 -13.109276 275.347644
-24.000000 -13.363605 273.363880
-24.000000 -13.617934 271.380117
-24.000000 -13.872262 269.396354
-24.000000 -14.126591 267.412590
-24.000000 -14.380920 265.428827
-24.000000 -14.635248 263.445064
-24.000000 -14.889577 261.461300
-24.000000 -15.143906 259.477537
-24.000000 -15.398234 257.493774
-24.000000 -15.652563 255.510010
-24.000000 -15.906891 253.526247
-24.000000 -16.161220 251.542484
-24.000000 -16.415549 249.558720
-24.000000 -16.669877 247.574957
-24.000000 -16.924206 245.591194
-24.000000 -17.178535 243.607430
-24.000000 -17.432863 241.623667
-24.000000 -17.687192 239.639904
-24.000000 -17.941520 237.656140
-24.000000 -18.195849 235.672377
-24.000000 -18.450178 233.688614
-24.000000 -18.704506 231.704850
-24.000000 -18.958835 229.721087
-24.000000 -19.213164 227.737324
-24.000000 -19.467492 225.753560
-24.000000 -19.721821 223.769797
-24.000000 -19.976150 221.786034
-24.000000 -20.230478 219.802270
-24.000000 -20.484807 217.818507
-24.000000 -20.739135 215.834744
-24.000000 -20.993464 213.850980
-24.000000 -21.247793 211.867217
-24.000000 -21.502121 209.883454
-24.000000 -21.756450 207.899690
-24.000000 -22.010779 205.915927
-24.000000 -22.265107 203.932164
-24.000000 -22.519436 201.948400
-24.000000 -22.773764 199.964637
-24.000000 -23.028093 197.980874
-24.000000 -23.282422 195.997110
-24.000000 -23.536750 194.013347
-24.000000 -23.791079 192.029584
-24.000000 -24.045408 190.045820
-24.000000 -24.299736 188.062057
-24.000000 -24.554065 186.078294
-24.000000 -24.808394 184.094531
-24.000000 -25.062722 182.110767
-24.000000 -25.317051 180.127004
-24.000000 -25.571379 178.143241
-24.000000 -25.825708 176.159477
-24.000000 -26.080037 174.175714
-24.000000 -26.334365 172.191951
-24.000000 -26.588694 170.208187
-24.000000 -26.843023 168.224424
-24.000000 -27.097351 166.240661
-24.000000 -27.351680 164.256897
-24.000000 -27.606008 162.273134
-24.000000 -27.860337 160.289371
-24.000000 -28.114666 158.305607
-24.000000 -28.368994 156.321844
-24.000000 -28.623323 154.338081
-24.000000 -28.877652 152.354317
-24.000000 -29.131980 150.370554
-24.000000 -29.386309 148.386791
-24.000000 -29.640638 146.403027
-24.000000 -29.894966 144.419264
-24.000000 -30.149295 142.435501
-24.000000 -30.403623 140.451737
-24.000000 -30.657952 138.467974
-24.000000 -30.912281 136.484211
-24.000000 -31.166609 134.500447
-24.000000 -31.420938 132.516684
-24.000000 -31.675267 130.532921
-24.000000 -32.000000 128.000000
-22.251051 -31.461862 127.192793
-20.502101 -30.923724 126.385585
-18.753152 -30.385585 125.578378
-17.004203 -29.847447 124.771171
-15.255254 -29.309309 123.963963
-13.506304 -28.771171 123.156756
-11.757355 -28.233032 122.349549
-10.008406 -27.694894 121.542341
-8.259457 -27.156756 120.735134
-6.510507 -26.618618 119.927926
-4.761558 -26.080479 119.120719
-3.012609 -25.542341 118.313512
-1.263660 -25.004203 117.506304
0.485290 -24.466065 116.699097
2.234239 -23.927926 115.891890
3.983188 -23.389788 115.084682
5.732137 -22.851650 114.277475
7.481087 -22.313512 113.470268
9.230036 -21.775374 112.663060
10.978985 -21.237235 111.855853
12.727935 -20.699097 111.048646
14.476884 -20.160959 110.241438
16.225833 -19.622821 109.434231
17.974782 -19.084682 108.627024
19.723732 -18.546544 107.819816
21.472681 -18.008406 107.012609
23.221630 -17.470268 106.205401
24.970579 -16.932129 105.398194
26.719529 -16.393991 104.590987
28.468478 -15.855853 103.783779
30.217427 -15.317715 102.976572
31.966376 -14.779576 102.169365
33.715326 -14.241438 101.362157
35.464275 -13.703300 100.554950
37.213224 -13.165162 99.747743
38.962174 -12.627024 98.940535
40.711123 -12.088885 98.133328
42.460072 -11.550747 97.326121
44.209021 -11.012609 96.518913
45.957971 -10.474471 95.711706
47.706920 -9.936332 94.904499
49.455869 -9.398194 94.097291
51.204818 -8.860056 93.290084
52.953768 -8.321918 92.482876
54.702717 -7.783779 91.675669
56.451666 -7.245641 90.868462
58.200615 -6.707503 90.061254
59.949565 -6.169365 89.254047
61.698514 -5.631226 88.446840
63.447463 -5.093088 87.639632
65.196412 -4.554950 86.832425
66.945362 -4.016812 86.025218
68.694311 -3.478674 85.218010
70.443260 -2.940535 84.410803
72.192210 -2.402397 83.603596
73.941159 -1.864259 82.796388
75.690108 -1.326121 81.989181
77.439057 -0.787982 81.181974
80.000000 0.000000 80.000000
82.000000 0.000000 80.000000
84.000000 0.000000 80.000000
88.000000 0.000000 80.000000
90.000000 0.000000 80.000000
92.000000 0.000000 80.000000
94.000000 0.000000 80.000000
96.000000 0.000000 80.000000
98.000000 0.000000 80.000000
100.000000 0.000000 80.000000
102.000000 0.000000 80.000000
104.000000 0.000000 80.000000
106.000000 0.000000 80.000000
108.000000 0.000000 80.000000
110.000000 0.000000 80.000000
112.000000 0.000000 80.000000
114.000000 0.000000 80.000000
116.000000 0.000000 80.000000
118.000000 0.000000 80.000000
120.000000 0.000000 80.000000
122.000000 0.000000 80.000000
124.000000 0.000000 80.000000
126.000000 0.000000 80.000000
128.000000 0.000000 80.000000
130.000000 0.000000 80.000000
132.000000 0.000000 80.000000
134.000000 0.000000 80.000000
136.000000 0.000000 80.000000
138.000000 0.000000 80.000000
140.000000 0.000000 80.000000
142.000000 0.000000 80.000000
144.000000 0.000000 80.000000
146.000000 0.000000 80.000000
148.000000 0.000000 80.000000
150.000000 0.000000 80.000000
152.000000 0.000000 80.000000
154.000000 0.000000 80.000000
156.000000 0.000000 80.000000
158.000000 0.000000 80.000000
160.000000 0.000000 80.000000
162.000000 0.000000 80.000000
164.000000 0.000000 80.000000
166.000000 0.000000 80.000000
168.000000 0.000000 80.000000
170.000000 0.000000 80.000000
172.000000 0.000000 80.000000
174.000000 0.000000 80.000000
176.000000 0.000000 80.000000
178.000000 0.000000 80.000000
180.000000 0.000000 80.000000
182.000000 0.000000 80.000000
184.000000 0.000000 80.000000
186.000000 0.000000 80.000000
188.000000 0.000000 80.000000
190.000000 0.000000 80.000000
192.000000 0.000000 80.000000
194.000000 0.000000 80.000000
196.000000 0.000000 80.000000
198.000000 0.000000 80.000000
200.000000 0.000000 80.000000
202.000000 0.000000 80.000000
204.000000 0.000000 80.000000
206.000000 0.000000 80.000000
208.000000 0.000000 80.000000
210.000000 0.000000 80.000000
212.000000 0.000000 80.000000
214.000000 0.000000 80.000000
216.000000 0.000000 80.000000
218.000000 0.000000 80.000000
220.000000 0.000000 80.000000
222.000000 0.000000 80.000000
224.000000 0.000000 80.000000
226.000000 0.000000 80.000000
228.000000 0.000000 80.000000
230.000000 0.000000 80.000000
232.000000 0.000000 80.000000
234.000000 0.000000 80.000000
236.000000 0.000000 80.000000
238.000000 0.000000 80.000000
240.000000 0.000000 80.000000
242.000000 0.000000 80.000000
244.000000 0.000000 80.000000
246.000000 0.000000 80.000000
248.000000 0.000000 80.000000
250.000000 0.000000 80.000000
252.000000 0.000000 80.000000
254.000000 0.000000 80.000000
256.000000 0.000000 80.000000
258.000000 0.000000 80.000000
260.000000 0.000000 80.000000
262.000000 0.000000 80.000000
264.000000 0.000000 80.000000
266.000000 0.000000 80.000000
268.000000 0.000000 80.000000
270.000000 0.000000 80.000000
272.000000 0.000000 80.000000
274.000000 0.000000 80.000000
276.000000 0.000000 80.000000
278.000000 0.000000 80.000000
280.000000 0.000000 80.000000
282.000000 0.000000 80.000000
284.000000 0.000000 80.000000
286.000000 0.000000 80.000000
288.000000 0.000000 80.000000
290.000000 0.000000 80.000000
292.000000 0.000000 80.000000
294.000000 0.000000 80.000000
296.000000 0.000000 80.000000
298.000000 0.000000 80.000000
300.000000 0.000000 80.000000
302.000000 0.000000 80.000000
304.000000 0.000000 80.000000
306.000000 0.000000 80.000000
308.000000 0.000000 80.000000
310.000000 0.000000 80.000000
312.000000 0.000000 80.000000
314.000000 0.000000 80.000000
316.000000 0.000000 80.000000
318.000000 0.000000 80.000000
320.000000 0.000000 80.000000
322.000000 0.000000 80.000000
324.000000 0.000000 80.000000
326.000000 0.000000 80.000000
328.000000 0.000000 80.000000
330.000000 0.000000 80.000000
332.000000 0.000000 80.000000
334.000000 0.000000 80.000000
336.000000 0.000000 80.000000
338.000000 0.000000 80.000000
340.000000 0.000000 80.000000
342.000000 0.000000 80.000000
344.000000 0.000000 80.000000
346.000000 0.000000 80.000000
348.000000 0.000000 80.000000
350.000000 0.000000 80.000000
352.000000 0.000000 80.000000
354.000000 0.000000 80.000000
356.000000 0.000000 80.000000
358.000000 0.000000 80.000000
360.000000 0.000000 80.000000
362.000000 0.000000 80.000000
364.000000 0.000000 80.000000
366.000000 0.000000 80.000000
368.000000 0.000000 80.000000
370.000000 0.000000 80.000000
372.000000 0.000000 80.000000
374.000000 0.000000 80.000000
376.000000 0.000000 80.000000
378.000000 0.000000 80.000000
380.000000 0.000000 80.000000
382.000000 0.000000 80.000000
384.000000 0.000000 80.000000
386.000000 0.000000 80.000000
388.000000 0.000000 80.000000
390.000000 0.000000 80.000000
392.000000 0.000000 80.000000
394.000000 0.000000 80.000000
396.000000 0.000000 80.000000
398.000000 0.000000 80.000000
400.000000 0.000000 80.000000
402.000000 0.000000 80.000000
404.000000 0.000000 80.000000
406.000000 0.000000 80.000000
408.000000 0.000000 80.000000
410.000000 0.000000 80.000000
412.000000 0.000000 80.000000
414.000000 0.000000 80.000000
416.000000 0.000000 80.000000
418.000000 0.000000 80.000000
420.000000 0.000000 80.000000
422.000000 0.000000 80.000000
424.000000 0.000000 80.000000
426.000000 0.000000 80.000000
428.000000 0.000000 80.000000
430.000000 0.000000 80.000000
432.000000 0.000000 80.000000
434.000000 0.000000 80.000000
436.000000 0.000000 80.000000
438.000000 0.000000 80.000000
440.000000 0.000000 80.000000
442.000000 0.000000 80.000000
444.000000 0.000000 80.000000
446.000000 0.000000 80.000000
448.000000 0.000000 80.000000
450.000000 0.000000 80.000000
452.000000 0.000000 80.000000
454.000000 0.000000 80.000000
456.000000 0.000000 80.000000
458.000000 0.000000 80.000000
460.000000 0.000000 80.000000
464.000000 0.000000 80.000000
466.000000 0.000000 80.000000
468.000000 0.000000 80.000000
472.000000 0.000000 80.000000
472.000000 -0.270226 81.981660
472.000000 -0.540453 83.963321
472.000000 -0.810679 85.944981
472.000000 -1.080906 87.926641
472.000000 -1.351132 89.908302
472.000000 -1.621358 91.889962
472.000000 -1.891585 93.871622
472.000000 -2.161811 95.853283
472.000000 -2.432038 97.834943
472.000000 -2.702264 99.816603
472.000000 -2.972491 101.798264
472.000000 -3.242717 103.779924
472.000000 -3.512943 105.761584
472.000000 -3.783170 107.743245
472.000000 -4.053396 109.724905
472.000000 -4.323623 111.706565
472.000000 -4.593849 113.688226
472.000000 -4.864075 115.669886
472.000000 -5.134302 117.651546
472.000000 -5.404528 119.633207
472.000000 -5.674755 121.614867
472.000000 -5.944981 123.596527
472.000000 -6.215207 125.578188
472.000000 -6.485434 127.559848
472.000000 -6.755660 129.541508
472.000000 -7.025887 131.523169
472.000000 -7.296113 133.504829
472.000000 -7.566339 135.486489
472.000000 -7.836566 137.468150
472.000000 -8.106792 139.449810
472.000000 -8.377019 141.431470
472.000000 -8.647245 143.413131
472.000000 -8.917472 145.394791
472.000000 -9.187698 147.376451
472.000000 -9.457924 149.358112
472.000000 -9.728151 151.339772
472.000000 -9.998377 153.321432
472.000000 -10.268604 155.303093
472.000000 -10.538830 157.284753
472.000000 -10.809056 159.266413
472.000000 -11.079283 161.248074
472.000000 -11.349509 163.229734
472.000000 -11.619736 165.211394
472.000000 -11.889962 167.193055
472.000000 -12.160188 169.174715
472.000000 -12.430415 171.156375
472.000000 -12.700641 173.138036
472.000000 -12.970868 175.119696
472.000000 -13.241094 177.101356
472.000000 -13.511320 179.083017
472.000000 -13.781547 181.064677
472.000000 -14.051773 183.046337
472.000000 -14.322000 185.027998
472.000000 -14.592226 187.009658
472.000000 -14.862453 188.991318
472.000000 -15.132679 190.972979
472.000000 -15.402905 192.954639
472.000000 -15.673132 194.936299
472.000000 -15.943358 196.917960
472.000000 -16.213585 198.899620
472.000000 -16.483811 200.881281
472.000000 -16.754037 202.862941
472.000000 -17.024264 204.844601
472.000000 -17.294490 206.826262
472.000000 -17.564717 208.807922
472.000000 -17.834943 210.789582
472.000000 -18.105169 212.771243
472.000000 -18.375396 214.752903
472.000000 -18.645622 216.734563
472.000000 -18.915849 218.716224
472.000000 -19.186075 220.697884
472.000000 -19.456301 222.679544
472.000000 -19.726528 224.661205
472.000000 -19.996754 226.642865
472.000000 -20.266981 228.624525
472.000000 -20.537207 230.606186
472.000000 -20.807434 232.587846
472.000000 -21.077660 234.569506
472.000000 -21.347886 236.551167
472.000000 -21.618113 238.532827
472.000000 -21.888339 240.514487
472.000000 -22.158566 242.496148
472.000000 -22.428792 244.477808
472.000000 -22.699018 246.459468
472.000000 -22.969245 248.441129
472.000000 -23.239471 250.422789
472.000000 -23.509698 252.404449
472.000000 -23.779924 254.386110
472.000000 -24.050150 256.367770
472.000000 -24.320377 258.349430
472.000000 -24.590603 260.331091
472.000000 -24.860830 262.312751
472.000000 -25.131056 264.294411
472.000000 -25.401282 266.276072
472.000000 -25.671509 268.257732
472.000000 -25.941735 270.239392
472.000000 -26.211962 272.221053
472.000000 -26.482188 274.202713
472.000000 -26.752415 276.184373
472.000000 -27.022641 278.166034
472.000000 -27.292867 280.147694
472.000000 -27.563094 282.129354
472.000000 -27.833320 284.111015
472.000000 -28.103547 286.092675
472.000000 -28.373773 288.074335
472.000000 -28.643999 290.055996
472.000000 -28.914226 292.037656
472.000000 -29.184452 294.019316
472.000000 -29.454679 296.000977
472.000000 -29.724905 297.982637
472.000000 -29.995131 299.964297
472.000000 -30.265358 301.945958
472.000000 -30.535584 303.927618
472.000000 -30.805811 305.909278
472.000000 -31.076037 307.890939
472.000000 -31.346263 309.872599
472.000000 -31.616490 311.854259
472.000000 -31.886716 313.835920
472.000000 -32.156943 315.817580
472.000000 -32.427169 317.799240
472.000000 -32.697396 319.780901
472.000000 -32.967622 321.762561
472.000000 -33.237848 323.744221
472.000000 -33.508075 325.725882
472.000000 -33.778301 327.707542
472.000000 -34.048528 329.689202
472.000000 -34.318754 331.670863
472.000000 -34.588980 333.652523
472.000000 -34.859207 335.634183
472.000000 -35.129433 337.615844
472.000000 -35.399660 339.597504
472.000000 -35.669886 341.579164
472.000000 -36.000000 344.000000
470.000000 -36.000000 344.000000
468.000000 -36.000000 344.000000
464.000000 -36.000000 344.000000
462.831644 -37.242932 342.955938
461.663289 -38.485863 341.911875
460.494933 -39.728795 340.867813
459.326578 -40.971726 339.823750
458.158222 -42.214658 338.779688
456.989866 -43.457589 337.735625
455.821511 -44.700521 336.691563
454.653155 -45.943452 335.647500
453.484799 -47.186384 334.603438
452.316444 -48.429315 333.559375
451.148088 -49.672247 332.515313
449.979733 -50.915178 331.471250
448.811377 -52.158110 330.427188
447.643021 -53.401041 329.383125
446.474666 -54.643973 328.339063
445.306310 -55.886904 327.295001
444.137955 -57.129836 326.250938
442.969599 -58.372767 325.206876
441.801243 -59.615699 324.162813
440.632888 -60.858630 323.118751
439.464532 -62.101562 322.074688
438.296176 -63.344493 321.030626
437.127821 -64.587425 319.986563
435.959465 -65.830356 318.942501
434.791110 -67.073288 317.898438
433.622754 -68.316219 316.854376
432.454398 -69.559151 315.810313
431.286043 -70.802082 314.766251
430.117687 -72.045014 313.722189
428.949332 -73.287945 312.678126
427.780976 -74.530877 311.634064
426.612620 -75.773808 310.590001
425.444265 -77.016740 309.545939
424.275909 -78.259671 308.501876
423.107553 -79.502603 307.457814
421.939198 -80.745534 306.413751
420.770842 -81.988466 305.369689
419.602487 -83.231397 304.325626
418.434131 -84.474329 303.281564
417.265775 -85.717260 302.237501
416.097420 -86.960192 301.193439
414.929064 -88.203123 300.149376
413.760709 -89.446055 299.105314
412.592353 -90.688986 298.061252
411.423997 -91.931918 297.017189
410.255642 -93.174849 295.973127
409.087286 -94.417781 294.929064
407.918930 -95.660712 293.885002
406.750575 -96.903644 292.840939
405.582219 -98.146575 291.796877
404.413864 -99.389507 290.752814
403.245508 -100.632438 289.708752
402.077152 -101.875370 288.664689
400.908797 -103.118301 287.620627
399.740441 -104.361233 286.576564
398.572086 -105.604164 285.532502
397.403730 -106.847096 284.488440
396.235374 -108.090027 283.444377
395.067019 -109.332959 282.400315
393.898663 -110.575890 281.356252
392.730307 -111.818822 280.312190
391.561952 -113.061753 279.268127
390.393596 -114.304685 278.224065
389.225241 -115.547616 277.180002
388.056885 -116.790548 276.135940
386.888529 -118.033479 275.091877
385.720174 -119.276411 274.047815
384.551818 -120.519342 273.003752
383.383463 -121.762274 271.959690
382.215107 -123.005205 270.915627
381.046751 -124.248137 269.871565
379.878396 -125.491068 268.827503
378.710040 -126.734000 267.783440
377.541684 -127.976931 266.739378
376.373329 -129.219863 265.695315
375.204973 -130.462794 264.651253
374.036618 -131.705726 263.607190
372.868262 -132.948657 262.563128
371.699906 -134.191589 261.519065
370.531551 -135.434520 260.475003
369.363195 -136.677452 259.430940
368.194840 -137.920383 258.386878
367.026484 -139.163315 257.342815
365.858128 -140.406246 256.298753
364.689773 -141.649178 255.254691
363.521417 -142.892109 254.210628
362.353061 -144.135041 253.166566
361.184706 -145.377972 252.122503
360.016350 -146.620904 251.078441
358.847995 -147.863835 250.034378
357.679639 -149.106767 248.990316
356.511283 -150.349698 247.946253
355.342928 -151.592630 246.902191
354.174572 -152.835562 245.858128
353.006217 -154.078493 244.814066
351.837861 -155.321425 243.770003
350.669505 -156.564356 242.725941
349.501150 -157.807288 241.681878
348.332794 -159.050219 240.637816
347.164438 -160.293151 239.593754
345.996083 -161.536082 238.549691
344.827727 -162.779014 237.505629
343.659372 -164.021945 236.461566
342.491016 -165.264877 235.417504
341.322660 -166.507808 234.373441
340.154305 -167.750740 233.329379
338.985949 -168.993671 232.285316
337.817594 -170.236603 231.241254
336.649238 -171.479534 230.197191
335.480882 -172.722466 229.153129
334.312527 -173.965397 228.109066
333.144171 -175.208329 227.065004
331.975816 -176.451260 226.020942
330.807460 -177.694192 224.976879
329.639104 -178.937123 223.932817
328.470749 -180.180055 222.888754
327.302393 -181.422986 221.844692
326.134037 -182.665918 220.800629
324.965682 -183.908849 219.756567
323.797326 -185.151781 218.712504
322.628971 -186.394712 217.668442
321.460615 -187.637644 216.624379
320.292259 -188.880575 215.580317
319.123904 -190.123507 214.536254
317.955548 -191.366438 213.492192
316.787193 -192.609370 212.448129
315.618837 -193.852301 211.404067
314.450481 -195.095233 210.360005
313.282126 -196.338164 209.315942
312.113770 -197.581096 208.271880
310.945414 -198.824027 207.227817
309.777059 -200.066959 206.183755
308.608703 -201.309890 205.139692
307.440348 -202.552822 204.095630
306.271992 -203.795753 203.051567
305.103636 -205.038685 202.007505
303.935281 -206.281616 200.963442
302.766925 -207.524548 199.919380
301.598570 -208.767479 198.875317
300.430214 -210.010411 197.831255
299.261858 -211.253342 196.787193
298.093503 -212.496274 195.743130
296.925147 -213.739205 194.699068
295.756791 -214.982137 193.655005
294.588436 -216.225068 192.610943
293.420080 -217.468000 191.566880
292.251725 -218.710931 190.522818
291.083369 -219.953863 189.478755
289.915013 -221.196794 188.434693
288.746658 -222.439726 187.390630
287.578302 -223.682657 186.346568
286.409947 -224.925589 185.302505
285.241591 -226.168520 184.258443
284.073235 -227.411452 183.214380
282.904880 -228.654383 182.170318
281.736524 -229.897315 181.126256
280.568168 -231.140246 180.082193
279.399813 -232.383178 179.038131
278.231457 -233.626109 177.994068
276.000000 -236.000000 176.000000
274.585786 -236.000000 174.585786
273.171573 -236.000000 173.171573
271.757359 -236.000000 171.757359
270.343146 -236.000000 170.343146
268.928932 -236.000000 168.928932
267.514719 -236.000000 167.514719
266.100505 -236.000000 166.100505
264.686292 -236.000000 164.686292
263.272078 -236.000000 163.272078
261.857864 -236.000000 161.857864
260.443651 -236.000000 160.443651
259.029437 -236.000000 159.029437
257.615224 -236.000000 157.615224
256.201010 -236.000000 156.201010
254.786797 -236.000000 154.786797
253.372583 -236.000000 153.372583
251.958369 -236.000000 151.958369
250.544156 -236.000000 150.544156
249.129942 -236.000000 149.129942
247.715729 -236.000000 147.715729
246.301515 -236.000000 146.301515
244.887302 -236.000000 144.887302
243.473088 -236.000000 143.473088
242.058875 -236.000000 142.058875
240.644661 -236.000000 140.644661
239.230447 -236.000000 139.230447
237.816234 -236.000000 137.816234
236.402020 -236.000000 136.402020
234.987807 -236.000000 134.987807
233.573593 -236.000000 133.573593
232.159380 -236.000000 132.159380
230.745166 -236.000000 130.745166
229.330952 -236.000000 129.330952
227.916739 -236.000000 127.916739
226.502525 -236.000000 126.502525
225.088312 -236.000000 125.088312
223.674098 -236.000000 123.674098
222.259885 -236.000000 122.259885
220.845671 -236.000000 120.845671
219.431458 -236.000000 119.431458
218.017244 -236.000000 118.017244
216.603030 -236.000000 116.603030
215.188817 -236.000000 115.188817
213.774603 -236.000000 113.774603
212.360390 -236.000000 112.360390
210.946176 -236.000000 110.946176
209.531963 -236.000000 109.531963
208.117749 -236.000000 108.117749
206.703535 -236.000000 106.703535
205.289322 -236.000000 105.289322
203.875108 -236.000000 103.875108
202.460895 -236.000000 102.460895
201.046681 -236.000000 101.046681
199.632468 -236.000000 99.632468
198.218254 -236.000000 98.218254
196.804041 -236.000000 96.804041
195.389827 -236.000000 95.389827
193.975613 -236.000000 93.975613
192.561400 -236.000000 92.561400
191.147186 -236.000000 91.147186
189.732973 -236.000000 89.732973
188.318759 -236.000000 88.318759
186.904546 -236.000000 86.904546
185.490332 -236.000000 85.490332
184.076118 -236.000000 84.076118
182.661905 -236.000000 82.661905
181.247691 -236.000000 81.247691
179.833478 -236.000000 79.833478
178.419264 -236.000000 78.419264
177.005051 -236.000000 77.005051
175.590837 -236.000000 75.590837
174.176624 -236.000000 74.176624
172.762410 -236.000000 72.762410
171.348196 -236.000000 71.348196
169.933983 -236.000000 69.933983
168.519769 -236.000000 68.519769
167.105556 -236.000000 67.105556
165.691342 -236.000000 65.691342
164.277129 -236.000000 64.277129
162.862915 -236.000000 62.862915
161.448701 -236.000000 61.448701
160.034488 -236.000000 60.034488
158.620274 -236.000000 58.620274
157.206061 -236.000000 57.206061
155.791847 -236.000000 55.791847
154.377634 -236.000000 54.377634
152.963420 -236.000000 52.963420
151.549207 -236.000000 51.549207
150.134993 -236.000000 50.134993
148.720779 -236.000000 48.720779
147.306566 -236.000000 47.306566
145.892352 -236.000000 45.892352
144.478139 -236.000000 44.478139
143.063925 -236.000000 43.063925
141.649712 -236.000000 41.649712
140.235498 -236.000000 40.235498
138.821284 -236.000000 38.821284
137.407071 -236.000000 37.407071
135.992857 -236.000000 35.992857
134.578644 -236.000000 34.578644
133.164430 -236.000000 33.164430
131.750217 -236.000000 31.750217
130.336003 -236.000000 30.336003
128.921790 -236.000000 28.921790
127.507576 -236.000000 27.507576
126.093362 -236.000000 26.093362
124.679149 -236.000000 24.679149
123.264935 -236.000000 23.264935
121.850722 -236.000000 21.850722
120.436508 -236.000000 20.436508
119.022295 -236.000000 19.022295
117.608081 -236.000000 17.608081
116.193867 -236.000000 16.193867
114.779654 -236.000000 14.779654
113.365440 -236.000000 13.365440
111.951227 -236.000000 11.951227
110.537013 -236.000000 10.537013
109.122800 -236.000000 9.122800
107.708586 -236.000000 7.708586
106.294373 -236.000000 6.294373
104.880159 -236.000000 4.880159
103.465945 -236.000000 3.465945
102.051732 -236.000000 2.051732
100.637518 -236.000000 0.637518
99.223305 -236.000000 -0.776695
97.809091 -236.000000 -2.190909
96.394878 -236.000000 -3.605122
94.980664 -236.000000 -5.019336
93.566450 -236.000000 -6.433550
92.152237 -236.000000 -7.847763
90.738023 -236.000000 -9.261977
88.000000 -236.000000 -12.000000
87.902555 -234.002375 -12.000000
87.805110 -232.004751 -12.000000
87.707665 -230.007126 -12.000000
87.610220 -228.009501 -12.000000
87.512774 -226.011876 -12.000000
87.415329 -224.014252 -12.000000
87.317884 -222.016627 -12.000000
87.220439 -220.019002 -12.000000
87.122994 -218.021378 -12.000000
87.025549 -216.023753 -12.000000
86.928104 -214.026128 -12.000000
86.830659 -212.028504 -12.000000
86.733214 -210.030879 -12.000000
86.635768 -208.033254 -12.000000
86.538323 -206.035629 -12.000000
86.440878 -204.038005 -12.000000
86.343433 -202.040380 -12.000000
86.245988 -200.042755 -12.000000
86.148543 -198.045131 -12.000000
86.051098 -196.047506 -12.000000
85.953653 -194.049881 -12.000000
85.856208 -192.052257 -12.000000
85.758763 -190.054632 -12.000000
85.661317 -188.057007 -12.000000
85.563872 -186.059382 -12.000000
85.466427 -184.061758 -12.000000
85.368982 -182.064133 -12.000000
85.271537 -180.066508 -12.000000
85.174092 -178.068884 -12.000000
85.076647 -176.071259 -12.000000
84.979202 -174.073634 -12.000000
84.881757 -172.076010 -12.000000
84.784311 -170.078385 -12.000000
84.686866 -168.080760 -12.000000
84.589421 -166.083135 -12.000000
84.491976 -164.085511 -12.000000
84.394531 -162.087886 -12.000000
84.297086 -160.090261 -12.000000
84.199641 -158.092637 -12.000000
84.102196 -156.095012 -12.000000
84.004751 -154.097387 -12.000000
83.907305 -152.099763 -12.000000
83.809860 -150.102138 -12.000000
83.712415 -148.104513 -12.000000
83.614970 -146.106888 -12.000000
83.517525 -144.109264 -12.000000
83.420080 -142.111639 -12.000000
83.322635 -140.114014 -12.000000
83.225190 -138.116390 -12.000000
83.127745 -136.118765 -12.000000
83.030300 -134.121140 -12.000000
82.932854 -132.123515 -12.000000
82.835409 -130.125891 -12.000000
82.737964 -128.128266 -12.000000
82.640519 -126.130641 -12.000000
82.543074 -124.133017 -12.000000
82.445629 -122.135392 -12.000000
82.348184 -120.137767 -12.000000
82.250739 -118.140143 -12.000000
82.153294 -116.142518 -12.000000
82.055848 -114.144893 -12.000000
81.958403 -112.147268 -12.000000
81.860958 -110.149644 -12.000000
81.763513 -108.152019 -12.000000
81.666068 -106.154394 -12.000000
81.568623 -104.156770 -12.000000
81.471178 -102.159145 -12.000000
81.373733 -100.161520 -12.000000
81.276288 -98.163896 -12.000000
81.178842 -96.166271 -12.000000
81.081397 -94.168646 -12.000000
80.983952 -92.171021 -12.000000
80.886507 -90.173397 -12.000000
80.789062 -88.175772 -12.000000
80.691617 -86.178147 -12.000000
80.594172 -84.180523 -12.000000
80.496727 -82.182898 -12.000000
80.399282 -80.185273 -12.000000
80.301837 -78.187649 -12.000000
80.204391 -76.190024 -12.000000
80.106946 -74.192399 -12.000000
80.000000 -72.000000 -12.000000
78.035987 -71.622305 -12.000000
76.071974 -71.244610 -12.000000
74.107961 -70.866916 -12.000000
72.143948 -70.489221 -12.000000
70.179936 -70.111526 -12.000000
68.215923 -69.733831 -12.000000
66.251910 -69.356136 -12.000000
64.287897 -68.978442 -12.000000
62.323884 -68.600747 -12.000000
60.359871 -68.223052 -12.000000
58.395858 -67.845357 -12.000000
56.431845 -67.467663 -12.000000
54.467832 -67.089968 -12.000000
52.503819 -66.712273 -12.000000
50.539807 -66.334578 -12.000000
48.575794 -65.956883 -12.000000
46.611781 -65.579189 -12.000000
44.647768 -65.201494 -12.000000
42.683755 -64.823799 -12.000000
40.719742 -64.446104 -12.000000
38.755729 -64.068409 -12.000000
36.791716 -63.690715 -12.000000
34.827703 -63.313020 -12.000000
32.863691 -62.935325 -12.000000
30.899678 -62.557630 -12.000000
28.935665 -62.179936 -12.000000
26.971652 -61.802241 -12.000000
25.007639 -61.424546 -12.000000
23.043626 -61.046851 -12.000000
21.079613 -60.669156 -12.000000
19.115600 -60.291462 -12.000000
17.151587 -59.913767 -12.000000
15.187574 -59.536072 -12.000000
13.223562 -59.158377 -12.000000
11.259549 -58.780682 -12.000000
9.295536 -58.402988 -12.000000
7.331523 -58.025293 -12.000000
5.367510 -57.647598 -12.000000
3.403497 -57.269903 -12.000000
1.439484 -56.892209 -12.000000
-0.524529 -56.514514 -12.000000
-2.488542 -56.136819 -12.000000
-4.452554 -55.759124 -12.000000
-6.416567 -55.381429 -12.000000
-8.380580 -55.003735 -12.000000
-10.344593 -54.626040 -12.000000
-12.308606 -54.248345 -12.000000
-14.272619 -53.870650 -12.000000
-16.236632 -53.492955 -12.000000
-18.200645 -53.115261 -12.000000
-20.164658 -52.737566 -12.000000
-22.128670 -52.359871 -12.000000
-24.092683 -51.982176 -12.000000
-26.056696 -51.604481 -12.000000
-28.020709 -51.226787 -12.000000
-29.984722 -50.849092 -12.000000
-31.948735 -50.471397 -12.000000
-33.912748 -50.093702 -12.000000
-35.876761 -49.716008 -12.000000
-37.840774 -49.338313 -12.000000
-39.804787 -48.960618 -12.000000
-41.768799 -48.582923 -12.000000
-43.732812 -48.205228 -12.000000
-45.696825 -47.827534 -12.000000
-47.660838 -47.449839 -12.000000
-49.624851 -47.072144 -12.000000
-51.588864 -46.694449 -12.000000
-53.552877 -46.316754 -12.000000
-55.516890 -45.939060 -12.000000
-57.480903 -45.561365 -12.000000
-59.444915 -45.183670 -12.000000
-61.408928 -44.805975 -12.000000
-63.372941 -44.428281 -12.000000
-65.336954 -44.050586 -12.000000
-67.300967 -43.672891 -12.000000
-69.264980 -43.295196 -12.000000
-71.228993 -42.917501 -12.000000
-73.193006 -42.539807 -12.000000
-75.157019 -42.162112 -12.000000
-77.121032 -41.784417 -12.000000
-79.085044 -41.406722 -12.000000
-81.049057 -41.029027 -12.000000
-83.013070 -40.651333 -12.000000
-84.977083 -40.273638 -12.000000
-86.941096 -39.895943 -12.000000
-88.905109 -39.518248 -12.000000
-90.869122 -39.140554 -12.000000
-92.833135 -38.762859 -12.000000
-94.797148 -38.385164 -12.000000
-96.761160 -38.007469 -12.000000
-98.725173 -37.629774 -12.000000
-100.689186 -37.252080 -12.000000
-102.653199 -36.874385 -12.000000
-104.617212 -36.496690 -12.000000
-106.581225 -36.118995 -12.000000
-108.545238 -35.741300 -12.000000
-110.509251 -35.363606 -12.000000
-112.473264 -34.985911 -12.000000
-114.437277 -34.608216 -12.000000
-116.401289 -34.230521 -12.000000
-118.365302 -33.852826 -12.000000
-120.329315 -33.475132 -12.000000
-122.293328 -33.097437 -12.000000
-124.257341 -32.719742 -12.000000
-128.000000 -32.000000 -12.000000
-129.714986 -32.000000 -10.971008
-131.429972 -32.000000 -9.942017
-133.144958 -32.000000 -8.913025
-134.859943 -32.000000 -7.884034
-136.574929 -32.000000 -6.855042
-138.289915 -32.000000 -5.826051
-140.004901 -32.000000 -4.797059
-141.719887 -32.000000 -3.768068
-143.434873 -32.000000 -2.739076
-145.149859 -32.000000 -1.710085
