-907.071676 -773.569944 677.291625
-906.743170 -775.540980 677.207353
-906.414664 -777.512016 677.123081
-906.000000 -780.000000 677.016706
-906.244981 -781.984939 677.016706
-906.489962 -783.969879 677.016706
-906.734943 -785.954818 677.016706
-906.979924 -787.939757 677.016706
-907.224906 -789.924697 677.016706
-907.469887 -791.909636 677.016706
-907.714868 -793.894576 677.016706
-907.959849 -795.879515 677.016706
-908.204830 -797.864454 677.016706
-908.449811 -799.849394 677.016706
-908.694792 -801.834333 677.016706
-908.939773 -803.819272 677.016706
-909.184755 -805.804212 677.016706
-909.429736 -807.789151 677.016706
-909.674717 -809.774090 677.016706
-909.919698 -811.759030 677.016706
-910.164679 -813.743969 677.016706
-910.409660 -815.728908 677.016706
-910.654641 -817.713848 677.016706
-910.899622 -819.698787 677.016706
-911.144603 -821.683727 677.016706
-911.389585 -823.668666 677.016706
-911.634566 -825.653605 677.016706
-911.879547 -827.638545 677.016706
-912.124528 -829.623484 677.016706
-912.369509 -831.608423 677.016706
-912.614490 -833.593363 677.016706
-912.859471 -835.578302 677.016706
-913.104452 -837.563241 677.016706
-913.349434 -839.548181 677.016706
-913.594415 -841.533120 677.016706
-913.839396 -843.518059 677.016706
-914.084377 -845.502999 677.016706
-914.329358 -847.487938 677.016706
-914.574339 -849.472878 677.016706
-914.819320 -851.457817 677.016706
-915.064301 -853.442756 677.016706
-915.309282 -855.427696 677.016706
-915.554264 -857.412635 677.016706
-915.799245 -859.397574 677.016706
-916.044226 -861.382514 677.016706
-916.289207 -863.367453 677.016706
-916.534188 -865.352392 677.016706
-916.779169 -867.337332 677.016706
-917.024150 -869.322271 677.016706
-917.269131 -871.307210 677.016706
-917.514113 -873.292150 677.016706
-917.759094 -875.277089 677.016706
-918.004075 -877.262029 677.016706
-918.249056 -879.246968 677.016706
-918.494037 -881.231907 677.016706
-918.739018 -883.216847 677.016706
-918.983999 -885.201786 677.016706
-919.228980 -887.186725 677.016706
-919.473961 -889.171665 677.016706
-919.718943 -891.156604 677.016706
-919.963924 -893.141543 677.016706
-920.208905 -895.126483 677.016706
-920.453886 -897.111422 677.016706
-920.698867 -899.096361 677.016706
-920.943848 -901.081301 677.016706
-921.188829 -903.066240 677.016706
-921.433810 -905.051180 677.016706
-921.678792 -907.036119 677.016706
-921.923773 -909.021058 677.016706
-922.168754 -911.005998 677.016706
-922.413735 -912.990937 677.016706
-922.658716 -914.975876 677.016706
-922.903697 -916.960816 677.016706
-923.148678 -918.945755 677.016706
-923.393659 -920.930694 677.016706
-923.638640 -922.915634 677.016706
-923.883622 -924.900573 677.016706
-924.128603 -926.885512 677.016706
-924.373584 -928.870452 677.016706
-924.618565 -930.855391 677.016706
-924.863546 -932.840331 677.016706
-925.108527 -934.825270 677.016706
-925.353508 -936.810209 677.016706
-925.598489 -938.795149 677.016706
-925.843471 -940.780088 677.016706
-926.088452 -942.765027 677.016706
-926.333433 -944.749967 677.016706
-926.578414 -946.734906 677.016706
-926.823395 -948.719845 677.016706
-927.068376 -950.704785 677.016706
-927.313357 -952.689724 677.016706
-927.558338 -954.674663 677.016706
-927.803319 -956.659603 677.016706
-928.048301 -958.644542 677.016706
-928.293282 -960.629482 677.016706
-928.538263 -962.614421 677.016706
-928.783244 -964.599360 677.016706
-929.028225 -966.584300 677.016706
-929.273206 -968.569239 677.016706
-929.518187 -970.554178 677.016706
-929.763168 -972.539118 677.016706
-930.008150 -974.524057 677.016706
-930.253131 -976.508996 677.016706
-930.498112 -978.493936 677.016706
-930.743093 -980.478875 677.016706
-930.988074 -982.463814 677.016706
-931.233055 -984.448754 677.016706
-931.478036 -986.433693 677.016706
-931.723017 -988.418633 677.016706
-931.967998 -990.403572 677.016706
-932.212980 -992.388511 677.016706
-932.457961 -994.373451 677.016706
-932.702942 -996.358390 677.016706
-932.947923 -998.343329 677.016706
-933.192904 -1000.328269 677.016706
-933.437885 -1002.313208 677.016706
-933.682866 -1004.298147 677.016706
-933.927847 -1006.283087 677.016706
-934.172828 -1008.268026 677.016706
-934.417810 -1010.252965 677.016706
-934.662791 -1012.237905 677.016706
-934.907772 -1014.222844 677.016706
-935.152753 -1016.207784 677.016706
-935.397734 -1018.192723 677.016706
-935.642715 -1020.177662 677.016706
-935.887696 -1022.162602 677.016706
-936.132677 -1024.147541 677.016706
-936.377659 -1026.132480 677.016706
-936.622640 -1028.117420 677.016706
-936.867621 -1030.102359 677.016706
-937.112602 -1032.087298 677.016706
-937.357583 -1034.072238 677.016706
-937.602564 -1036.057177 677.016706
-937.847545 -1038.042116 677.016706
-938.092526 -1040.027056 677.016706
-938.337507 -1042.011995 677.016706
-938.582489 -1043.996935 677.016706
-938.827470 -1045.981874 677.016706
-939.072451 -1047.966813 677.016706
-939.317432 -1049.951753 677.016706
-939.562413 -1051.936692 677.016706
-939.807394 -1053.921631 677.016706
-940.052375 -1055.906571 677.016706
-940.297356 -1057.891510 677.016706
-940.542338 -1059.876449 677.016706
-940.787319 -1061.861389 677.016706
-941.032300 -1063.846328 677.016706
-941.277281 -1065.831267 677.016706
-941.522262 -1067.816207 677.016706
-941.767243 -1069.801146 677.016706
-942.012224 -1071.786086 677.016706
-942.257205 -1073.771025 677.016706
-942.502186 -1075.755964 677.016706
-942.747168 -1077.740904 677.016706
-942.992149 -1079.725843 677.016706
-943.237130 -1081.710782 677.016706
-943.482111 -1083.695722 677.016706
-943.727092 -1085.680661 677.016706
-943.972073 -1087.665600 677.016706
-944.217054 -1089.650540 677.016706
-944.462035 -1091.635479 677.016706
-944.707017 -1093.620418 677.016706
-944.951998 -1095.605358 677.016706
-945.196979 -1097.590297 677.016706
-945.441960 -1099.575237 677.016706
-945.686941 -1101.560176 677.016706
-945.931922 -1103.545115 677.016706
-946.176903 -1105.530055 677.016706
-946.421884 -1107.514994 677.016706
-946.666865 -1109.499933 677.016706
-946.911847 -1111.484873 677.016706
-947.156828 -1113.469812 677.016706
-947.401809 -1115.454751 677.016706
-947.646790 -1117.439691 677.016706
-947.891771 -1119.424630 677.016706
-948.136752 -1121.409569 677.016706
-948.381733 -1123.394509 677.016706
-948.626714 -1125.379448 677.016706
-948.871696 -1127.364388 677.016706
-949.116677 -1129.349327 677.016706
-949.361658 -1131.334266 677.016706
-949.606639 -1133.319206 677.016706
-949.851620 -1135.304145 677.016706
-950.096601 -1137.289084 677.016706
-950.341582 -1139.274024 677.016706
-950.586563 -1141.258963 677.016706
-950.831544 -1143.243902 677.016706
-951.076526 -1145.228842 677.016706
-951.321507 -1147.213781 677.016706
-951.566488 -1149.198720 677.016706
-951.811469 -1151.183660 677.016706
-952.056450 -1153.168599 677.016706
-952.301431 -1155.153539 677.016706
-952.546412 -1157.138478 677.016706
-952.791393 -1159.123417 677.016706
-953.036375 -1161.108357 677.016706
-953.281356 -1163.093296 677.016706
-953.526337 -1165.078235 677.016706
-953.771318 -1167.063175 677.016706
-954.016299 -1169.048114 677.016706
-954.261280 -1171.033053 677.016706
-954.506261 -1173.017993 677.016706
-954.751242 -1175.002932 677.016706
-954.996223 -1176.987871 677.016706
-955.241205 -1178.972811 677.016706
-955.486186 -1180.957750 677.016706
-955.731167 -1182.942690 677.016706
-955.976148 -1184.927629 677.016706
-956.221129 -1186.912568 677.016706
-956.466110 -1188.897508 677.016706
-956.711091 -1190.882447 677.016706
-956.956072 -1192.867386 677.016706
-957.201054 -1194.852326 677.016706
-957.446035 -1196.837265 677.016706
-957.691016 -1198.822204 677.016706
-957.935997 -1200.807144 677.016706
-958.180978 -1202.792083 677.016706
-958.425959 -1204.777022 677.016706
-958.670940 -1206.761962 677.016706
-958.915921 -1208.746901 677.016706
-959.160902 -1210.731841 677.016706
-959.405884 -1212.716780 677.016706
-959.650865 -1214.701719 677.016706
-959.895846 -1216.686659 677.016706
-960.140827 -1218.671598 677.016706
-960.385808 -1220.656537 677.016706
-960.630789 -1222.641477 677.016706
-960.875770 -1224.626416 677.016706
-961.120751 -1226.611355 677.016706
-961.365733 -1228.596295 677.016706
-961.610714 -1230.581234 677.016706
-961.855695 -1232.566173 677.016706
-962.100676 -1234.551113 677.016706
-962.345657 -1236.536052 677.016706
-962.590638 -1238.520992 677.016706
-962.835619 -1240.505931 677.016706
-963.080600 -1242.490870 677.016706
-963.325581 -1244.475810 677.016706
-963.570563 -1246.460749 677.016706
-963.815544 -1248.445688 677.016706
-964.060525 -1250.430628 677.016706
-964.305506 -1252.415567 677.016706
-964.550487 -1254.400506 677.016706
-964.795468 -1256.385446 677.016706
-965.040449 -1258.370385 677.016706
-965.285430 -1260.355324 677.016706
-965.530412 -1262.340264 677.016706
-965.775393 -1264.325203 677.016706
-966.020374 -1266.310143 677.016706
-966.265355 -1268.295082 677.016706
-966.510336 -1270.280021 677.016706
-966.755317 -1272.264961 677.016706
-967.000298 -1274.249900 677.016706
-967.245279 -1276.234839 677.016706
-967.490260 -1278.219779 677.016706
-967.735242 -1280.204718 677.016706
-967.980223 -1282.189657 677.016706
-968.225204 -1284.174597 677.016706
-968.470185 -1286.159536 677.016706
-968.715166 -1288.144475 677.016706
-968.960147 -1290.129415 677.016706
-969.205128 -1292.114354 677.016706
-969.450109 -1294.099294 677.016706
-969.695091 -1296.084233 677.016706
-969.940072 -1298.069172 677.016706
-970.185053 -1300.054112 677.016706
-970.430034 -1302.039051 677.016706
-970.675015 -1304.023990 677.016706
-970.919996 -1306.008930 677.016706
-971.164977 -1307.993869 677.016706
-971.409958 -1309.978808 677.016706
-971.654939 -1311.963748 677.016706
-971.899921 -1313.948687 677.016706
-972.144902 -1315.933626 677.016706
-972.389883 -1317.918566 677.016706
-972.634864 -1319.903505 677.016706
-972.879845 -1321.888445 677.016706
-973.124826 -1323.873384 677.016706
-973.369807 -1325.858323 677.016706
-973.614788 -1327.843263 677.016706
-973.859770 -1329.828202 677.016706
-974.104751 -1331.813141 677.016706
-974.349732 -1333.798081 677.016706
-974.594713 -1335.783020 677.016706
-974.839694 -1337.767959 677.016706
-975.084675 -1339.752899 677.016706
-975.329656 -1341.737838 677.016706
-975.574637 -1343.722777 677.016706
-975.819618 -1345.707717 677.016706
-976.064600 -1347.692656 677.016706
-976.309581 -1349.677596 677.016706
-976.554562 -1351.662535 677.016706
-976.799543 -1353.647474 677.016706
-977.044524 -1355.632414 677.016706
-977.289505 -1357.617353 677.016706
-977.534486 -1359.602292 677.016706
-977.779467 -1361.587232 677.016706
-978.024449 -1363.572171 677.016706
-978.269430 -1365.557110 677.016706
-978.514411 -1367.542050 677.016706
-978.759392 -1369.526989 677.016706
-979.004373 -1371.511928 677.016706
-979.249354 -1373.496868 677.016706
-979.494335 -1375.481807 677.016706
-979.739316 -1377.466747 677.016706
-979.984297 -1379.451686 677.016706
-980.229279 -1381.436625 677.016706
-980.474260 -1383.421565 677.016706
-980.719241 -1385.406504 677.016706
-980.964222 -1387.391443 677.016706
-981.209203 -1389.376383 677.016706
-981.454184 -1391.361322 677.016706
-981.699165 -1393.346261 677.016706
-981.944146 -1395.331201 677.016706
-982.189127 -1397.316140 677.016706
-982.434109 -1399.301079 677.016706
-982.679090 -1401.286019 677.016706
-982.924071 -1403.270958 677.016706
-983.169052 -1405.255898 677.016706
-983.414033 -1407.240837 677.016706
-983.659014 -1409.225776 677.016706
-983.903995 -1411.210716 677.016706
-984.148976 -1413.195655 677.016706
-984.393958 -1415.180594 677.016706
-984.638939 -1417.165534 677.016706
-984.883920 -1419.150473 677.016706
-985.128901 -1421.135412 677.016706
-985.373882 -1423.120352 677.016706
-985.618863 -1425.105291 677.016706
-985.863844 -1427.090230 677.016706
-986.108825 -1429.075170 677.016706
-986.353806 -1431.060109 677.016706
-986.598788 -1433.045049 677.016706
-986.843769 -1435.029988 677.016706
-987.088750 -1437.014927 677.016706
-987.333731 -1438.999867 677.016706
-987.578712 -1440.984806 677.016706
-987.823693 -1442.969745 677.016706
-988.068674 -1444.954685 677.016706
-988.313655 -1446.939624 677.016706
-988.558637 -1448.924563 677.016706
-988.803618 -1450.909503 677.016706
-989.048599 -1452.894442 677.016706
-989.293580 -1454.879381 677.016706
-989.538561 -1456.864321 677.016706
-989.783542 -1458.849260 677.016706
-990.028523 -1460.834200 677.016706
-990.273504 -1462.819139 677.016706
-990.518485 -1464.804078 677.016706
-990.763467 -1466.789018 677.016706
-991.008448 -1468.773957 677.016706
-991.253429 -1470.758896 677.016706
-991.498410 -1472.743836 677.016706
-991.743391 -1474.728775 677.016706
-991.988372 -1476.713714 677.016706
-992.233353 -1478.698654 677.016706
-992.478334 -1480.683593 677.016706
-992.723316 -1482.668532 677.016706
-992.968297 -1484.653472 677.016706
-993.213278 -1486.638411 677.016706
-993.458259 -1488.623351 677.016706
-993.703240 -1490.608290 677.016706
-993.948221 -1492.593229 677.016706
-994.193202 -1494.578169 677.016706
-994.438183 -1496.563108 677.016706
-994.683164 -1498.548047 677.016706
-994.928146 -1500.532987 677.016706
-995.173127 -1502.517926 677.016706
-995.418108 -1504.502865 677.016706
-995.663089 -1506.487805 677.016706
-995.908070 -1508.472744 677.016706
-996.153051 -1510.457683 677.016706
-996.398032 -1512.442623 677.016706
-996.643013 -1514.427562 677.016706
-996.887995 -1516.412502 677.016706
-997.132976 -1518.397441 677.016706
-997.377957 -1520.382380 677.016706
-997.622938 -1522.367320 677.016706
-997.867919 -1524.352259 677.016706
-998.112900 -1526.337198 677.016706
-998.357881 -1528.322138 677.016706
-998.602862 -1530.307077 677.016706
-998.847843 -1532.292016 677.016706
-999.092825 -1534.276956 677.016706
-999.337806 -1536.261895 677.016706
-999.582787 -1538.246834 677.016706
-999.827768 -1540.231774 677.016706
-1000.072749 -1542.216713 677.016706
-1000.317730 -1544.201653 677.016706
-1000.562711 -1546.186592 677.016706
-1000.807692 -1548.171531 677.016706
-1001.052674 -1550.156471 677.016706
-1001.297655 -1552.141410 677.016706
-1001.542636 -1554.126349 677.016706
-1001.787617 -1556.111289 677.016706
-1002.032598 -1558.096228 677.016706
-1002.277579 -1560.081167 677.016706
-1002.522560 -1562.066107 677.016706
-1002.767541 -1564.051046 677.016706
-1003.012522 -1566.035985 677.016706
-1003.257504 -1568.020925 677.016706
-1003.502485 -1570.005864 677.016706
-1003.747466 -1571.990804 677.016706
-1003.992447 -1573.975743 677.016706
-1004.237428 -1575.960682 677.016706
-1004.482409 -1577.945622 677.016706
-1004.727390 -1579.930561 677.016706
-1004.972371 -1581.915500 677.016706
-1005.217353 -1583.900440 677.016706
-1005.462334 -1585.885379 677.016706
-1005.707315 -1587.870318 677.016706
-1005.952296 -1589.855258 677.016706
-1006.197277 -1591.840197 677.016706
-1006.442258 -1593.825136 677.016706
-1006.687239 -1595.810076 677.016706
-1006.932220 -1597.795015 677.016706
-1007.177201 -1599.779955 677.016706
-1007.422183 -1601.764894 677.016706
-1007.667164 -1603.749833 677.016706
-1007.912145 -1605.734773 677.016706
-1008.157126 -1607.719712 677.016706
-1008.402107 -1609.704651 677.016706
-1008.647088 -1611.689591 677.016706
-1008.892069 -1613.674530 677.016706
-1009.137050 -1615.659469 677.016706
-1009.382032 -1617.644409 677.016706
-1009.627013 -1619.629348 677.016706
-1009.871994 -1621.614287 677.016706
-1010.116975 -1623.599227 677.016706
-1010.361956 -1625.584166 677.016706
-1010.606937 -1627.569106 677.016706
-1010.851918 -1629.554045 677.016706
-1011.096899 -1631.538984 677.016706
-1011.341880 -1633.523924 677.016706
-1011.586862 -1635.508863 677.016706
-1011.831843 -1637.493802 677.016706
-1012.076824 -1639.478742 677.016706
-1012.321805 -1641.463681 677.016706
-1012.566786 -1643.448620 677.016706
-1012.811767 -1645.433560 677.016706
-1013.056748 -1647.418499 677.016706
-1013.301729 -1649.403438 677.016706
-1013.546711 -1651.388378 677.016706
-1013.791692 -1653.373317 677.016706
-1014.036673 -1655.358257 677.016706
-1014.281654 -1657.343196 677.016706
-1014.526635 -1659.328135 677.016706
-1014.771616 -1661.313075 677.016706
-1015.016597 -1663.298014 677.016706
-1015.261578 -1665.282953 677.016706
-1015.506559 -1667.267893 677.016706
-1015.751541 -1669.252832 677.016706
-1015.996522 -1671.237771 677.016706
-1016.241503 -1673.222711 677.016706
-1016.486484 -1675.207650 677.016706
-1016.731465 -1677.192589 677.016706
-1016.976446 -1679.177529 677.016706
-1017.221427 -1681.162468 677.016706
-1017.466408 -1683.147408 677.016706
-1017.711390 -1685.132347 677.016706
-1017.956371 -1687.117286 677.016706
-1018.201352 -1689.102226 677.016706
-1018.446333 -1691.087165 677.016706
-1018.691314 -1693.072104 677.016706
-1018.936295 -1695.057044 677.016706
-1019.181276 -1697.041983 677.016706
-1019.426257 -1699.026922 677.016706
-1019.671238 -1701.011862 677.016706
-1019.916220 -1702.996801 677.016706
-1020.161201 -1704.981740 677.016706
-1020.406182 -1706.966680 677.016706
-1020.651163 -1708.951619 677.016706
-1020.896144 -1710.936559 677.016706
-1021.141125 -1712.921498 677.016706
-1021.386106 -1714.906437 677.016706
-1021.631087 -1716.891377 677.016706
-1021.876069 -1718.876316 677.016706
-1022.121050 -1720.861255 677.016706
-1022.366031 -1722.846195 677.016706
-1022.611012 -1724.831134 677.016706
-1022.855993 -1726.816073 677.016706
-1023.100974 -1728.801013 677.016706
-1023.345955 -1730.785952 677.016706
-1023.590936 -1732.770892 677.016706
-1023.835917 -1734.755831 677.016706
-1024.080899 -1736.740770 677.016706
-1024.325880 -1738.725710 677.016706
-1024.570861 -1740.710649 677.016706
-1024.815842 -1742.695588 677.016706
-1025.060823 -1744.680528 677.016706
-1025.305804 -1746.665467 677.016706
-1025.550785 -1748.650406 677.016706
-1025.795766 -1750.635346 677.016706
-1026.040748 -1752.620285 677.016706
-1026.285729 -1754.605224 677.016706
-1026.530710 -1756.590164 677.016706
-1026.775691 -1758.575103 677.016706
-1027.020672 -1760.560043 677.016706
-1027.265653 -1762.544982 677.016706
-1027.510634 -1764.529921 677.016706
-1027.755615 -1766.514861 677.016706
-1028.000596 -1768.499800 677.016706
-1028.245578 -1770.484739 677.016706
-1028.490559 -1772.469679 677.016706
-1028.735540 -1774.454618 677.016706
-1028.980521 -1776.439557 677.016706
-1029.225502 -1778.424497 677.016706
-1029.470483 -1780.409436 677.016706
-1029.715464 -1782.394375 677.016706
-1029.960445 -1784.379315 677.016706
-1030.205426 -1786.364254 677.016706
-1030.450408 -1788.349194 677.016706
-1030.695389 -1790.334133 677.016706
-1030.940370 -1792.319072 677.016706
-1031.185351 -1794.304012 677.016706
-1031.430332 -1796.288951 677.016706
-1031.675313 -1798.273890 677.016706
-1031.920294 -1800.258830 677.016706
-1032.165275 -1802.243769 677.016706
-1032.410257 -1804.228708 677.016706
-1032.655238 -1806.213648 677.016706
-1032.900219 -1808.198587 677.016706
-1033.145200 -1810.183526 677.016706
-1033.390181 -1812.168466 677.016706
-1033.635162 -1814.153405 677.016706
-1033.880143 -1816.138345 677.016706
-1034.125124 -1818.123284 677.016706
-1034.370105 -1820.108223 677.016706
-1034.615087 -1822.093163 677.016706
-1034.860068 -1824.078102 677.016706
-1035.105049 -1826.063041 677.016706
-1035.350030 -1828.047981 677.016706
-1035.595011 -1830.032920 677.016706
-1035.839992 -1832.017859 677.016706
-1036.084973 -1834.002799 677.016706
-1036.329954 -1835.987738 677.016706
-1036.574936 -1837.972677 677.016706
-1036.819917 -1839.957617 677.016706
-1037.064898 -1841.942556 677.016706
-1037.309879 -1843.927496 677.016706
-1037.554860 -1845.912435 677.016706
-1037.799841 -1847.897374 677.016706
-1038.044822 -1849.882314 677.016706
-1038.289803 -1851.867253 677.016706
-1038.534784 -1853.852192 677.016706
-1038.779766 -1855.837132 677.016706
-1039.024747 -1857.822071 677.016706
-1039.269728 -1859.807010 677.016706
-1039.514709 -1861.791950 677.016706
-1039.759690 -1863.776889 677.016706
-1040.004671 -1865.761828 677.016706
-1040.249652 -1867.746768 677.016706
-1040.494633 -1869.731707 677.016706
-1040.739615 -1871.716647 677.016706
-1040.984596 -1873.701586 677.016706
-1041.229577 -1875.686525 677.016706
-1041.474558 -1877.671465 677.016706
-1041.719539 -1879.656404 677.016706
-1041.964520 -1881.641343 677.016706
-1042.209501 -1883.626283 677.016706
-1042.454482 -1885.611222 677.016706
-1042.699463 -1887.596161 677.016706
-1042.944445 -1889.581101 677.016706
-1043.189426 -1891.566040 677.016706
-1043.434407 -1893.550979 677.016706
-1043.679388 -1895.535919 677.016706
-1043.924369 -1897.520858 677.016706
-1044.169350 -1899.505798 677.016706
-1044.414331 -1901.490737 677.016706
-1044.659312 -1903.475676 677.016706
-1044.904294 -1905.460616 677.016706
-1045.149275 -1907.445555 677.016706
-1045.394256 -1909.430494 677.016706
-1045.639237 -1911.415434 677.016706
-1045.884218 -1913.400373 677.016706
-1046.129199 -1915.385312 677.016706
-1046.374180 -1917.370252 677.016706
-1046.619161 -1919.355191 677.016706
-1046.864142 -1921.340130 677.016706
-1047.109124 -1923.325070 677.016706
-1047.354105 -1925.310009 677.016706
-1047.599086 -1927.294949 677.016706
-1047.844067 -1929.279888 677.016706
-1048.089048 -1931.264827 677.016706
-1048.334029 -1933.249767 677.016706
-1048.579010 -1935.234706 677.016706
-1048.823991 -1937.219645 677.016706
-1049.068973 -1939.204585 677.016706
-1049.313954 -1941.189524 677.016706
-1049.558935 -1943.174463 677.016706
-1049.803916 -1945.159403 677.016706
-1050.048897 -1947.144342 677.016706
-1050.293878 -1949.129281 677.016706
-1050.538859 -1951.114221 677.016706
-1050.783840 -1953.099160 677.016706
-1051.028821 -1955.084100 677.016706
-1051.273803 -1957.069039 677.016706
-1051.518784 -1959.053978 677.016706
-1051.763765 -1961.038918 677.016706
-1052.008746 -1963.023857 677.016706
-1052.253727 -1965.008796 677.016706
-1052.498708 -1966.993736 677.016706
-1052.743689 -1968.978675 677.016706
-1052.988670 -1970.963614 677.016706
-1053.233652 -1972.948554 677.016706
-1053.478633 -1974.933493 677.016706
-1053.723614 -1976.918432 677.016706
-1053.968595 -1978.903372 677.016706
-1054.213576 -1980.888311 677.016706
-1054.458557 -1982.873251 677.016706
-1054.703538 -1984.858190 677.016706
-1054.948519 -1986.843129 677.016706
-1055.193500 -1988.828069 677.016706
-1055.438482 -1990.813008 677.016706
-1055.683463 -1992.797947 677.016706
-1055.928444 -1994.782887 677.016706
-1056.173425 -1996.767826 677.016706
-1056.418406 -1998.752765 677.016706
-1056.663387 -2000.737705 677.016706
-1056.908368 -2002.722644 677.016706
-1057.153349 -2004.707583 677.016706
-1057.398331 -2006.692523 677.016706
-1057.643312 -2008.677462 677.016706
-1057.888293 -2010.662402 677.016706
-1058.133274 -2012.647341 677.016706
-1058.378255 -2014.632280 677.016706
-1058.623236 -2016.617220 677.016706
-1058.868217 -2018.602159 677.016706
-1059.113198 -2020.587098 677.016706
-1059.358179 -2022.572038 677.016706
-1059.603161 -2024.556977 677.016706
-1059.848142 -2026.541916 677.016706
-1060.093123 -2028.526856 677.016706
-1060.338104 -2030.511795 677.016706
-1060.583085 -2032.496734 677.016706
-1060.828066 -2034.481674 677.016706
-1061.073047 -2036.466613 677.016706
-1061.318028 -2038.451553 677.016706
-1061.563010 -2040.436492 677.016706
-1061.807991 -2042.421431 677.016706
-1062.052972 -2044.406371 677.016706
-1062.297953 -2046.391310 677.016706
-1062.542934 -2048.376249 677.016706
-1062.787915 -2050.361189 677.016706
-1063.032896 -2052.346128 677.016706
-1063.277877 -2054.331067 677.016706
-1063.522858 -2056.316007 677.016706
-1063.767840 -2058.300946 677.016706
-1064.012821 -2060.285885 677.016706
-1064.257802 -2062.270825 677.016706
-1064.502783 -2064.255764 677.016706
-1064.747764 -2066.240704 677.016706
-1064.992745 -2068.225643 677.016706
-1065.237726 -2070.210582 677.016706
-1065.482707 -2072.195522 677.016706
-1065.727689 -2074.180461 677.016706
-1065.972670 -2076.165400 677.016706
-1066.217651 -2078.150340 677.016706
-1066.462632 -2080.135279 677.016706
-1066.707613 -2082.120218 677.016706
-1066.952594 -2084.105158 677.016706
-1067.197575 -2086.090097 677.016706
-1067.442556 -2088.075036 677.016706
-1067.687537 -2090.059976 677.016706
-1067.932519 -2092.044915 677.016706
-1068.177500 -2094.029855 677.016706
-1068.422481 -2096.014794 677.016706
-1068.667462 -2097.999733 677.016706
-1068.912443 -2099.984673 677.016706
-1069.157424 -2101.969612 677.016706
-1069.402405 -2103.954551 677.016706
-1069.647386 -2105.939491 677.016706
-1069.892368 -2107.924430 677.016706
-1070.137349 -2109.909369 677.016706
-1070.382330 -2111.894309 677.016706
-1070.627311 -2113.879248 677.016706
-1070.872292 -2115.864187 677.016706
-1071.117273 -2117.849127 677.016706
-1071.362254 -2119.834066 677.016706
-1071.607235 -2121.819006 677.016706
-1071.852216 -2123.803945 677.016706
-1072.097198 -2125.788884 677.016706
-1072.342179 -2127.773824 677.016706
-1072.587160 -2129.758763 677.016706
-1072.832141 -2131.743702 677.016706
-1073.077122 -2133.728642 677.016706
-1073.322103 -2135.713581 677.016706
-1073.567084 -2137.698520 677.016706
-1073.812065 -2139.683460 677.016706
-1074.057047 -2141.668399 677.016706
-1074.302028 -2143.653338 677.016706
-1074.547009 -2145.638278 677.016706
-1074.791990 -2147.623217 677.016706
-1075.036971 -2149.608157 677.016706
-1075.281952 -2151.593096 677.016706
-1075.526933 -2153.578035 677.016706
-1075.771914 -2155.562975 677.016706
-1076.016895 -2157.547914 677.016706
-1076.261877 -2159.532853 677.016706
-1076.506858 -2161.517793 677.016706
-1076.751839 -2163.502732 677.016706
-1076.996820 -2165.487671 677.016706
-1077.241801 -2167.472611 677.016706
-1077.486782 -2169.457550 677.016706
-1077.731763 -2171.442489 677.016706
-1077.976744 -2173.427429 677.016706
-1078.221725 -2175.412368 677.016706
-1078.466707 -2177.397308 677.016706
-1078.711688 -2179.382247 677.016706
-1078.956669 -2181.367186 677.016706
-1079.201650 -2183.352126 677.016706
-1079.446631 -2185.337065 677.016706
-1079.691612 -2187.322004 677.016706
-1079.936593 -2189.306944 677.016706
-1080.181574 -2191.291883 677.016706
-1080.426556 -2193.276822 677.016706
-1080.671537 -2195.261762 677.016706
-1080.916518 -2197.246701 677.016706
-1081.161499 -2199.231640 677.016706
-1081.406480 -2201.216580 677.016706
-1081.651461 -2203.201519 677.016706
-1081.896442 -2205.186459 677.016706
-1082.141423 -2207.171398 677.016706
-1082.386404 -2209.156337 677.016706
-1082.631386 -2211.141277 677.016706
-1082.876367 -2213.126216 677.016706
-1083.121348 -2215.111155 677.016706
-1083.366329 -2217.096095 677.016706
-1083.611310 -2219.081034 677.016706
-1083.856291 -2221.065973 677.016706
-1084.101272 -2223.050913 677.016706
-1084.346253 -2225.035852 677.016706
-1084.591235 -2227.020791 677.016706
-1084.836216 -2229.005731 677.016706
-1085.081197 -2230.990670 677.016706
-1085.326178 -2232.975610 677.016706
-1085.571159 -2234.960549 677.016706
-1085.816140 -2236.945488 677.016706
-1086.061121 -2238.930428 677.016706
-1086.306102 -2240.915367 677.016706
-1086.551083 -2242.900306 677.016706
-1086.796065 -2244.885246 677.016706
-1087.041046 -2246.870185 677.016706
-1087.286027 -2248.855124 677.016706
-1087.531008 -2250.840064 677.016706
-1087.775989 -2252.825003 677.016706
-1088.020970 -2254.809942 677.016706
-1088.265951 -2256.794882 677.016706
-1088.510932 -2258.779821 677.016706
-1088.755914 -2260.764761 677.016706
-1089.000895 -2262.749700 677.016706
-1089.245876 -2264.734639 677.016706
-1089.490857 -2266.719579 677.016706
-1089.735838 -2268.704518 677.016706
-1090.000000 -2270.844869 677.016706
-1091.292416 -2272.081016 676.121385
-1092.584833 -2273.317164 675.226065
-1093.877249 -2274.553311 674.330744
-1095.169665 -2275.789459 673.435423
-1096.462081 -2277.025606 672.540102
-1097.754498 -2278.261754 671.644781
-1099.046914 -2279.497901 670.749460
-1100.339330 -2280.734048 669.854139
-1101.631746 -2281.970196 668.958818
-1102.924163 -2283.206343 668.063497
-1104.216579 -2284.442491 667.168176
-1105.508995 -2285.678638 666.272855
-1106.801412 -2286.914786 665.377534
-1108.093828 -2288.150933 664.482213
-1109.386244 -2289.387081 663.586892
-1110.678660 -2290.623228 662.691571
-1111.971077 -2291.859376 661.796250
-1113.263493 -2293.095523 660.900929
-1114.555909 -2294.331671 660.005608
-1115.848326 -2295.567818 659.110287
-1117.140742 -2296.803965 658.214966
-1118.433158 -2298.040113 657.319645
-1119.725574 -2299.276260 656.424324
-1121.017991 -2300.512408 655.529003
-1122.310407 -2301.748555 654.633682
-1123.602823 -2302.984703 653.738362
-1124.895239 -2304.220850 652.843041
-1126.187656 -2305.456998 651.947720
-1127.480072 -2306.693145 651.052399
-1128.772488 -2307.929293 650.157078
-1130.064905 -2309.165440 649.261757
-1131.357321 -2310.401588 648.366436
-1132.649737 -2311.637735 647.471115
-1133.942153 -2312.873882 646.575794
-1135.234570 -2314.110030 645.680473
-1136.526986 -2315.346177 644.785152
-1137.819402 -2316.582325 643.889831
-1139.111819 -2317.818472 642.994510
-1140.404235 -2319.054620 642.099189
-1141.696651 -2320.290767 641.203868
-1142.989067 -2321.526915 640.308547
-1144.281484 -2322.763062 639.413226
-1145.573900 -2323.999210 638.517905
-1146.866316 -2325.235357 637.622584
-1148.158732 -2326.471505 636.727263
-1149.451149 -2327.707652 635.831942
-1150.743565 -2328.943799 634.936621
-1152.035981 -2330.179947 634.041300
-1153.328398 -2331.416094 633.145979
-1154.620814 -2332.652242 632.250659
-1155.913230 -2333.888389 631.355338
-1157.205646 -2335.124537 630.460017
-1158.498063 -2336.360684 629.564696
-1159.790479 -2337.596832 628.669375
-1161.082895 -2338.832979 627.774054
-1162.375312 -2340.069127 626.878733
-1163.667728 -2341.305274 625.983412
-1164.960144 -2342.541422 625.088091
-1166.252560 -2343.777569 624.192770
-1167.544977 -2345.013716 623.297449
-1168.837393 -2346.249864 622.402128
-1170.129809 -2347.486011 621.506807
-1171.422225 -2348.722159 620.611486
-1172.714642 -2349.958306 619.716165
-1174.007058 -2351.194454 618.820844
-1175.299474 -2352.430601 617.925523
-1176.591891 -2353.666749 617.030202
-1177.884307 -2354.902896 616.134881
-1179.176723 -2356.139044 615.239560
-1180.469139 -2357.375191 614.344239
-1181.761556 -2358.611339 613.448918
-1183.053972 -2359.847486 612.553597
-1184.346388 -2361.083633 611.658276
-1185.638805 -2362.319781 610.762956
-1186.931221 -2363.555928 609.867635
-1188.223637 -2364.792076 608.972314
-1189.516053 -2366.028223 608.076993
-1190.808470 -2367.264371 607.181672
-1192.100886 -2368.500518 606.286351
-1193.393302 -2369.736666 605.391030
-1194.685718 -2370.972813 604.495709
-1195.978135 -2372.208961 603.600388
-1197.270551 -2373.445108 602.705067
-1198.562967 -2374.681256 601.809746
-1199.855384 -2375.917403 600.914425
-1201.147800 -2377.153550 600.019104
-1202.440216 -2378.389698 599.123783
-1203.732632 -2379.625845 598.228462
-1205.025049 -2380.861993 597.333141
-1206.317465 -2382.098140 596.437820
-1207.609881 -2383.334288 595.542499
-1208.902298 -2384.570435 594.647178
-1210.194714 -2385.806583 593.751857
-1211.487130 -2387.042730 592.856536
-1212.779546 -2388.278878 591.961215
-1214.071963 -2389.515025 591.065894
-1215.364379 -2390.751173 590.170573
-1216.656795 -2391.987320 589.275253
-1217.949211 -2393.223467 588.379932
-1219.241628 -2394.459615 587.484611
-1220.534044 -2395.695762 586.589290
-1221.826460 -2396.931910 585.693969
-1223.118877 -2398.168057 584.798648
-1224.411293 -2399.404205 583.903327
-1225.703709 -2400.640352 583.008006
-1226.996125 -2401.876500 582.112685
-1228.288542 -2403.112647 581.217364
-1229.580958 -2404.348795 580.322043
-1230.873374 -2405.584942 579.426722
-1232.165790 -2406.821090 578.531401
-1233.458207 -2408.057237 577.636080
-1234.750623 -2409.293384 576.740759
-1236.043039 -2410.529532 575.845438
-1237.335456 -2411.765679 574.950117
-1238.627872 -2413.001827 574.054796
-1239.920288 -2414.237974 573.159475
-1241.212704 -2415.474122 572.264154
-1242.505121 -2416.710269 571.368833
-1243.797537 -2417.946417 570.473512
-1245.089953 -2419.182564 569.578191
-1246.382370 -2420.418712 568.682871
-1247.674786 -2421.654859 567.787550
-1248.967202 -2422.891007 566.892229
-1250.259618 -2424.127154 565.996908
-1251.552035 -2425.363302 565.101587
-1252.844451 -2426.599449 564.206266
-1254.136867 -2427.835596 563.310945
-1255.429283 -2429.071744 562.415624
-1256.721700 -2430.307891 561.520303
-1258.014116 -2431.544039 560.624982
-1259.306532 -2432.780186 559.729661
-1260.598949 -2434.016334 558.834340
-1261.891365 -2435.252481 557.939019
-1263.183781 -2436.488629 557.043698
-1264.476197 -2437.724776 556.148377
-1265.768614 -2438.960924 555.253056
-1267.061030 -2440.197071 554.357735
-1268.353446 -2441.433219 553.462414
-1269.645863 -2442.669366 552.567093
-1270.938279 -2443.905513 551.671772
-1272.230695 -2445.141661 550.776451
-1273.523111 -2446.377808 549.881130
-1274.815528 -2447.613956 548.985809
-1276.107944 -2448.850103 548.090488
-1277.400360 -2450.086251 547.195168
-1278.692776 -2451.322398 546.299847
-1279.985193 -2452.558546 545.404526
-1281.277609 -2453.794693 544.509205
-1282.570025 -2455.030841 543.613884
-1283.862442 -2456.266988 542.718563
-1285.154858 -2457.503136 541.823242
-1286.447274 -2458.739283 540.927921
-1287.739690 -2459.975430 540.032600
-1289.032107 -2461.211578 539.137279
-1290.324523 -2462.447725 538.241958
-1291.616939 -2463.683873 537.346637
-1292.909356 -2464.920020 536.451316
-1294.201772 -2466.156168 535.555995
-1295.494188 -2467.392315 534.660674
-1296.786604 -2468.628463 533.765353
-1298.079021 -2469.864610 532.870032
-1299.371437 -2471.100758 531.974711
-1300.663853 -2472.336905 531.079390
-1301.956269 -2473.573053 530.184069
-1303.248686 -2474.809200 529.288748
-1304.541102 -2476.045347 528.393427
-1305.833518 -2477.281495 527.498106
-1307.125935 -2478.517642 526.602785
-1308.418351 -2479.753790 525.707465
-1309.710767 -2480.989937 524.812144
-1311.003183 -2482.226085 523.916823
-1312.295600 -2483.462232 523.021502
-1313.588016 -2484.698380 522.126181
-1314.880432 -2485.934527 521.230860
-1316.172849 -2487.170675 520.335539
-1317.465265 -2488.406822 519.440218
-1318.757681 -2489.642970 518.544897
-1320.050097 -2490.879117 517.649576
-1321.342514 -2492.115264 516.754255
-1322.634930 -2493.351412 515.858934
-1323.927346 -2494.587559 514.963613
-1325.219762 -2495.823707 514.068292
-1326.512179 -2497.059854 513.172971
-1327.804595 -2498.296002 512.277650
-1329.097011 -2499.532149 511.382329
-1330.389428 -2500.768297 510.487008
-1331.681844 -2502.004444 509.591687
-1332.974260 -2503.240592 508.696366
-1334.266676 -2504.476739 507.801045
-1335.559093 -2505.712887 506.905724
-1336.851509 -2506.949034 506.010403
-1338.143925 -2508.185181 505.115082
-1339.436342 -2509.421329 504.219762
-1340.728758 -2510.657476 503.324441
-1342.021174 -2511.893624 502.429120
-1343.313590 -2513.129771 501.533799
-1344.606007 -2514.365919 500.638478
-1345.898423 -2515.602066 499.743157
-1347.190839 -2516.838214 498.847836
-1348.483255 -2518.074361 497.952515
-1349.775672 -2519.310509 497.057194
-1351.068088 -2520.546656 496.161873
-1352.360504 -2521.782804 495.266552
-1353.652921 -2523.018951 494.371231
-1354.945337 -2524.255098 493.475910
-1356.237753 -2525.491246 492.580589
-1357.530169 -2526.727393 491.685268
-1358.822586 -2527.963541 490.789947
-1360.115002 -2529.199688 489.894626
-1361.407418 -2530.435836 488.999305
-1362.699834 -2531.671983 488.103984
-1363.992251 -2532.908131 487.208663
-1365.284667 -2534.144278 486.313342
-1366.577083 -2535.380426 485.418021
-1367.869500 -2536.616573 484.522700
-1369.161916 -2537.852721 483.627379
-1370.454332 -2539.088868 482.732059
-1371.746748 -2540.325015 481.836738
-1373.039165 -2541.561163 480.941417
-1374.331581 -2542.797310 480.046096
-1375.623997 -2544.033458 479.150775
-1376.916414 -2545.269605 478.255454
-1378.208830 -2546.505753 477.360133
-1379.501246 -2547.741900 476.464812
-1380.793662 -2548.978048 475.569491
-1382.086079 -2550.214195 474.674170
-1383.378495 -2551.450343 473.778849
-1384.670911 -2552.686490 472.883528
-1385.963327 -2553.922638 471.988207
-1387.255744 -2555.158785 471.092886
-1388.548160 -2556.394932 470.197565
-1389.840576 -2557.631080 469.302244
-1391.132993 -2558.867227 468.406923
-1392.425409 -2560.103375 467.511602
-1393.717825 -2561.339522 466.616281
-1395.010241 -2562.575670 465.720960
-1396.302658 -2563.811817 464.825639
-1397.595074 -2565.047965 463.930318
-1398.887490 -2566.284112 463.034997
-1400.179907 -2567.520260 462.139676
-1401.472323 -2568.756407 461.244356
-1402.764739 -2569.992555 460.349035
-1404.057155 -2571.228702 459.453714
-1405.349572 -2572.464850 458.558393
-1406.641988 -2573.700997 457.663072
-1407.934404 -2574.937144 456.767751
-1409.226820 -2576.173292 455.872430
-1410.519237 -2577.409439 454.977109
-1411.811653 -2578.645587 454.081788
-1413.104069 -2579.881734 453.186467
-1414.396486 -2581.117882 452.291146
-1415.688902 -2582.354029 451.395825
-1416.981318 -2583.590177 450.500504
-1418.273734 -2584.826324 449.605183
-1419.566151 -2586.062472 448.709862
-1420.858567 -2587.298619 447.814541
-1422.150983 -2588.534767 446.919220
-1423.443400 -2589.770914 446.023899
-1424.735816 -2591.007061 445.128578
-1426.028232 -2592.243209 444.233257
-1427.320648 -2593.479356 443.337936
-1428.613065 -2594.715504 442.442615
-1429.905481 -2595.951651 441.547294
-1431.197897 -2597.187799 440.651973
-1432.490313 -2598.423946 439.756653
-1433.782730 -2599.660094 438.861332
-1435.075146 -2600.896241 437.966011
-1436.367562 -2602.132389 437.070690
-1437.659979 -2603.368536 436.175369
-1438.952395 -2604.604684 435.280048
-1440.244811 -2605.840831 434.384727
-1441.537227 -2607.076978 433.489406
-1442.829644 -2608.313126 432.594085
-1444.122060 -2609.549273 431.698764
-1445.414476 -2610.785421 430.803443
-1446.706893 -2612.021568 429.908122
-1447.999309 -2613.257716 429.012801
-1449.291725 -2614.493863 428.117480
-1450.584141 -2615.730011 427.222159
-1451.876558 -2616.966158 426.326838
-1453.168974 -2618.202306 425.431517
-1454.461390 -2619.438453 424.536196
-1455.753806 -2620.674601 423.640875
-1457.046223 -2621.910748 422.745554
-1458.338639 -2623.146895 421.850233
-1459.631055 -2624.383043 420.954912
-1460.923472 -2625.619190 420.059591
-1462.215888 -2626.855338 419.164270
-1463.508304 -2628.091485 418.268950
-1464.800720 -2629.327633 417.373629
-1466.093137 -2630.563780 416.478308
-1467.385553 -2631.799928 415.582987
-1468.677969 -2633.036075 414.687666
-1469.970385 -2634.272223 413.792345
-1471.262802 -2635.508370 412.897024
-1472.555218 -2636.744518 412.001703
-1473.847634 -2637.980665 411.106382
-1475.140051 -2639.216812 410.211061
-1476.432467 -2640.452960 409.315740
-1477.724883 -2641.689107 408.420419
-1479.017299 -2642.925255 407.525098
-1480.309716 -2644.161402 406.629777
-1481.602132 -2645.397550 405.734456
-1482.894548 -2646.633697 404.839135
-1484.186965 -2647.869845 403.943814
-1485.479381 -2649.105992 403.048493
-1486.771797 -2650.342140 402.153172
-1488.064213 -2651.578287 401.257851
-1489.356630 -2652.814435 400.362530
-1490.649046 -2654.050582 399.467209
-1491.941462 -2655.286729 398.571888
-1493.233878 -2656.522877 397.676567
-1494.526295 -2657.759024 396.781247
-1495.818711 -2658.995172 395.885926
-1497.111127 -2660.231319 394.990605
-1498.403544 -2661.467467 394.095284
-1499.695960 -2662.703614 393.199963
-1500.988376 -2663.939762 392.304642
-1502.280792 -2665.175909 391.409321
-1503.573209 -2666.412057 390.514000
-1504.865625 -2667.648204 389.618679
-1506.158041 -2668.884352 388.723358
-1507.450458 -2670.120499 387.828037
-1508.742874 -2671.356646 386.932716
-1510.035290 -2672.592794 386.037395
-1511.327706 -2673.828941 385.142074
-1512.620123 -2675.065089 384.246753
-1513.912539 -2676.301236 383.351432
-1515.204955 -2677.537384 382.456111
-1516.497371 -2678.773531 381.560790
-1517.789788 -2680.009679 380.665469
-1519.082204 -2681.245826 379.770148
-1520.374620 -2682.481974 378.874827
-1521.667037 -2683.718121 377.979506
-1522.959453 -2684.954269 377.084185
-1524.251869 -2686.190416 376.188864
-1525.544285 -2687.426563 375.293544
-1526.836702 -2688.662711 374.398223
-1528.129118 -2689.898858 373.502902
-1529.421534 -2691.135006 372.607581
-1530.713951 -2692.371153 371.712260
-1532.006367 -2693.607301 370.816939
-1533.298783 -2694.843448 369.921618
-1534.591199 -2696.079596 369.026297
-1535.883616 -2697.315743 368.130976
-1537.176032 -2698.551891 367.235655
-1538.468448 -2699.788038 366.340334
-1539.760864 -2701.024186 365.445013
-1541.053281 -2702.260333 364.549692
-1542.345697 -2703.496480 363.654371
-1543.638113 -2704.732628 362.759050
-1544.930530 -2705.968775 361.863729
-1546.222946 -2707.204923 360.968408
-1547.515362 -2708.441070 360.073087
-1548.807778 -2709.677218 359.177766
-1550.100195 -2710.913365 358.282445
-1551.392611 -2712.149513 357.387124
-1552.685027 -2713.385660 356.491803
-1553.977444 -2714.621808 355.596482
-1555.269860 -2715.857955 354.701161
-1556.562276 -2717.094103 353.805841
-1557.854692 -2718.330250 352.910520
-1559.147109 -2719.566398 352.015199
-1560.439525 -2720.802545 351.119878
-1561.731941 -2722.038692 350.224557
-1563.024357 -2723.274840 349.329236
-1564.316774 -2724.510987 348.433915
-1565.609190 -2725.747135 347.538594
-1566.901606 -2726.983282 346.643273
-1568.194023 -2728.219430 345.747952
-1569.486439 -2729.455577 344.852631
-1570.778855 -2730.691725 343.957310
-1572.071271 -2731.927872 343.061989
-1573.363688 -2733.164020 342.166668
-1574.656104 -2734.400167 341.271347
-1575.948520 -2735.636315 340.376026
-1577.240937 -2736.872462 339.480705
-1578.533353 -2738.108609 338.585384
-1579.825769 -2739.344757 337.690063
-1581.118185 -2740.580904 336.794742
-1582.410602 -2741.817052 335.899421
-1583.703018 -2743.053199 335.004100
-1584.995434 -2744.289347 334.108779
-1586.287850 -2745.525494 333.213458
-1587.580267 -2746.761642 332.318138
-1588.872683 -2747.997789 331.422817
-1590.165099 -2749.233937 330.527496
-1591.457516 -2750.470084 329.632175
-1592.749932 -2751.706232 328.736854
-1594.042348 -2752.942379 327.841533
-1595.334764 -2754.178526 326.946212
-1596.627181 -2755.414674 326.050891
-1597.919597 -2756.650821 325.155570
-1599.212013 -2757.886969 324.260249
-1600.504429 -2759.123116 323.364928
-1601.796846 -2760.359264 322.469607
-1603.089262 -2761.595411 321.574286
-1604.381678 -2762.831559 320.678965
-1605.674095 -2764.067706 319.783644
-1606.966511 -2765.303854 318.888323
-1608.258927 -2766.540001 317.993002
-1609.551343 -2767.776149 317.097681
-1610.843760 -2769.012296 316.202360
-1612.136176 -2770.248443 315.307039
-1613.428592 -2771.484591 314.411718
-1614.721009 -2772.720738 313.516397
-1616.013425 -2773.956886 312.621076
-1617.305841 -2775.193033 311.725756
-1618.598257 -2776.429181 310.830435
-1619.890674 -2777.665328 309.935114
-1621.183090 -2778.901476 309.039793
-1622.475506 -2780.137623 308.144472
-1623.767922 -2781.373771 307.249151
-1625.060339 -2782.609918 306.353830
-1626.352755 -2783.846066 305.458509
-1627.645171 -2785.082213 304.563188
-1628.937588 -2786.318360 303.667867
-1630.230004 -2787.554508 302.772546
-1631.522420 -2788.790655 301.877225
-1632.814836 -2790.026803 300.981904
-1634.107253 -2791.262950 300.086583
-1635.399669 -2792.499098 299.191262
-1636.692085 -2793.735245 298.295941
-1637.984502 -2794.971393 297.400620
-1639.276918 -2796.207540 296.505299
-1640.569334 -2797.443688 295.609978
-1641.861750 -2798.679835 294.714657
-1643.154167 -2799.915983 293.819336
-1644.446583 -2801.152130 292.924015
-1645.738999 -2802.388277 292.028694
-1647.031415 -2803.624425 291.133373
-1648.323832 -2804.860572 290.238053
-1649.616248 -2806.096720 289.342732
-1650.908664 -2807.332867 288.447411
-1652.201081 -2808.569015 287.552090
-1653.493497 -2809.805162 286.656769
-1654.785913 -2811.041310 285.761448
-1656.078329 -2812.277457 284.866127
-1657.370746 -2813.513605 283.970806
-1658.663162 -2814.749752 283.075485
-1659.955578 -2815.985900 282.180164
-1661.247995 -2817.222047 281.284843
-1662.540411 -2818.458194 280.389522
-1663.832827 -2819.694342 279.494201
-1665.125243 -2820.930489 278.598880
-1666.417660 -2822.166637 277.703559
-1667.710076 -2823.402784 276.808238
-1669.002492 -2824.638932 275.912917
-1670.294908 -2825.875079 275.017596
-1671.587325 -2827.111227 274.122275
-1672.879741 -2828.347374 273.226954
-1674.172157 -2829.583522 272.331633
-1675.464574 -2830.819669 271.436312
-1676.756990 -2832.055817 270.540991
-1678.049406 -2833.291964 269.645670
-1679.341822 -2834.528111 268.750350
-1680.634239 -2835.764259 267.855029
-1681.926655 -2837.000406 266.959708
-1683.219071 -2838.236554 266.064387
-1684.511488 -2839.472701 265.169066
-1685.803904 -2840.708849 264.273745
-1687.096320 -2841.944996 263.378424
-1688.388736 -2843.181144 262.483103
-1689.681153 -2844.417291 261.587782
-1690.973569 -2845.653439 260.692461
-1692.265985 -2846.889586 259.797140
-1693.558401 -2848.125734 258.901819
-1694.850818 -2849.361881 258.006498
-1696.143234 -2850.598028 257.111177
-1697.435650 -2851.834176 256.215856
-1698.728067 -2853.070323 255.320535
-1700.020483 -2854.306471 254.425214
-1701.312899 -2855.542618 253.529893
-1702.605315 -2856.778766 252.634572
-1703.897732 -2858.014913 251.739251
-1705.190148 -2859.251061 250.843930
-1706.482564 -2860.487208 249.948609
-1707.774981 -2861.723356 249.053288
-1709.067397 -2862.959503 248.157967
-1710.359813 -2864.195651 247.262647
-1711.652229 -2865.431798 246.367326
-1712.944646 -2866.667946 245.472005
-1714.237062 -2867.904093 244.576684
-1715.529478 -2869.140240 243.681363
-1716.821894 -2870.376388 242.786042
-1718.114311 -2871.612535 241.890721
-1719.406727 -2872.848683 240.995400
-1720.699143 -2874.084830 240.100079
-1721.991560 -2875.320978 239.204758
-1723.283976 -2876.557125 238.309437
-1724.576392 -2877.793273 237.414116
-1725.868808 -2879.029420 236.518795
-1727.161225 -2880.265568 235.623474
-1728.453641 -2881.501715 234.728153
-1729.746057 -2882.737863 233.832832
-1731.038473 -2883.974010 232.937511
-1732.330890 -2885.210157 232.042190
-1733.623306 -2886.446305 231.146869
-1734.915722 -2887.682452 230.251548
-1736.208139 -2888.918600 229.356227
-1737.500555 -2890.154747 228.460906
-1738.792971 -2891.390895 227.565585
-1740.085387 -2892.627042 226.670264
-1741.377804 -2893.863190 225.774944
-1742.670220 -2895.099337 224.879623
-1743.962636 -2896.335485 223.984302
-1745.255053 -2897.571632 223.088981
-1746.547469 -2898.807780 222.193660
-1747.839885 -2900.043927 221.298339
-1749.132301 -2901.280074 220.403018
-1750.424718 -2902.516222 219.507697
-1751.717134 -2903.752369 218.612376
-1753.009550 -2904.988517 217.717055
-1754.301966 -2906.224664 216.821734
-1755.594383 -2907.460812 215.926413
-1756.886799 -2908.696959 215.031092
-1758.179215 -2909.933107 214.135771
-1759.471632 -2911.169254 213.240450
-1760.764048 -2912.405402 212.345129
-1762.056464 -2913.641549 211.449808
-1763.348880 -2914.877697 210.554487
-1764.641297 -2916.113844 209.659166
-1765.933713 -2917.349991 208.763845
-1767.226129 -2918.586139 207.868524
-1768.518546 -2919.822286 206.973203
-1769.810962 -2921.058434 206.077882
-1771.103378 -2922.294581 205.182561
-1772.395794 -2923.530729 204.287241
-1773.688211 -2924.766876 203.391920
-1774.980627 -2926.003024 202.496599
-1776.273043 -2927.239171 201.601278
-1777.565459 -2928.475319 200.705957
-1778.857876 -2929.711466 199.810636
-1780.150292 -2930.947614 198.915315
-1781.442708 -2932.183761 198.019994
-1782.735125 -2933.419908 197.124673
-1784.027541 -2934.656056 196.229352
-1785.319957 -2935.892203 195.334031
-1786.612373 -2937.128351 194.438710
-1787.904790 -2938.364498 193.543389
-1789.197206 -2939.600646 192.648068
-1790.489622 -2940.836793 191.752747
-1791.782039 -2942.072941 190.857426
-1793.074455 -2943.309088 189.962105
-1794.366871 -2944.545236 189.066784
-1795.659287 -2945.781383 188.171463
-1796.951704 -2947.017531 187.276142
-1798.244120 -2948.253678 186.380821
-1799.536536 -2949.489825 185.485500
-1800.828952 -2950.725973 184.590179
-1802.121369 -2951.962120 183.694858
-1803.413785 -2953.198268 182.799538
-1804.706201 -2954.434415 181.904217
-1805.998618 -2955.670563 181.008896
-1807.291034 -2956.906710 180.113575
