-876.821336 -19.949520 469.499772
-878.769527 -19.541178 469.305323
-880.717717 -19.132836 469.110874
-882.665908 -18.724494 468.916426
-884.614098 -18.316151 468.721977
-886.562289 -17.907809 468.527528
-888.510480 -17.499467 468.333080
-890.458670 -17.091125 468.138631
-892.406861 -16.682783 467.944182
-894.355051 -16.274440 467.749733
-896.303242 -15.866098 467.555285
-898.251432 -15.457756 467.360836
-900.199623 -15.049414 467.166387
-902.147813 -14.641071 466.971939
-904.096004 -14.232729 466.777490
-906.044194 -13.824387 466.583041
-907.992385 -13.416045 466.388593
-909.940575 -13.007703 466.194144
-911.888766 -12.599360 465.999695
-913.836956 -12.191018 465.805247
-915.785147 -11.782676 465.610798
-917.733337 -11.374334 465.416349
-919.681528 -10.965992 465.221901
-921.629719 -10.557649 465.027452
-923.577909 -10.149307 464.833003
-925.526100 -9.740965 464.638555
-927.474290 -9.332623 464.444106
-929.422481 -8.924280 464.249657
-931.370671 -8.515938 464.055209
-933.318862 -8.107596 463.860760
-935.267052 -7.699254 463.666311
-937.215243 -7.290912 463.471863
-939.163433 -6.882569 463.277414
-941.111624 -6.474227 463.082965
-943.059814 -6.065885 462.888517
-945.008005 -5.657543 462.694068
-946.956195 -5.249200 462.499619
-948.904386 -4.840858 462.305171
-950.852577 -4.432516 462.110722
-952.800767 -4.024174 461.916273
-954.748958 -3.615832 461.721825
-956.697148 -3.207489 461.527376
-958.645339 -2.799147 461.332927
-960.593529 -2.390805 461.138479
-962.541720 -1.982463 460.944030
-964.489910 -1.574121 460.749581
-966.438101 -1.165778 460.555133
-968.386291 -0.757436 460.360684
-972.000000 0.000000 460.000000
-974.000000 0.000000 460.000000
-976.000000 0.000000 460.000000
-978.000000 0.000000 460.000000
-980.000000 0.000000 460.000000
-982.000000 0.000000 460.000000
-984.000000 0.000000 460.000000
-988.000000 0.000000 460.000000
-989.918245 -0.013800 460.565813
-991.836490 -0.027601 461.131627
-993.754736 -0.041401 461.697440
-995.672981 -0.055201 462.263253
-997.591226 -0.069002 462.829067
-999.509471 -0.082802 463.394880
-1001.427717 -0.096602 463.960693
-1003.345962 -0.110403 464.526507
-1005.264207 -0.124203 465.092320
-1007.182452 -0.138003 465.658133
-1009.100698 -0.151804 466.223947
-1011.018943 -0.165604 466.789760
-1012.937188 -0.179404 467.355573
-1014.855433 -0.193205 467.921387
-1016.773679 -0.207005 468.487200
-1018.691924 -0.220805 469.053014
-1020.610169 -0.234606 469.618827
-1022.528414 -0.248406 470.184640
-1024.446660 -0.262206 470.750454
-1026.364905 -0.276007 471.316267
-1028.283150 -0.289807 471.882080
-1030.201395 -0.303607 472.447894
-1032.119641 -0.317407 473.013707
-1034.037886 -0.331208 473.579520
-1035.956131 -0.345008 474.145334
-1037.874376 -0.358808 474.711147
-1039.792622 -0.372609 475.276960
-1041.710867 -0.386409 475.842774
-1043.629112 -0.400209 476.408587
-1045.547357 -0.414010 476.974400
-1047.465603 -0.427810 477.540214
-1049.383848 -0.441610 478.106027
-1051.302093 -0.455411 478.671840
-1053.220338 -0.469211 479.237654
-1055.138583 -0.483011 479.803467
-1057.056829 -0.496812 480.369280
-1058.975074 -0.510612 480.935094
-1060.893319 -0.524412 481.500907
-1062.811564 -0.538213 482.066720
-1064.729810 -0.552013 482.632534
-1066.648055 -0.565813 483.198347
-1068.566300 -0.579614 483.764160
-1070.484545 -0.593414 484.329974
-1072.402791 -0.607214 484.895787
-1074.321036 -0.621015 485.461601
-1076.239281 -0.634815 486.027414
-1078.157526 -0.648615 486.593227
-1080.075772 -0.662416 487.159041
-1081.994017 -0.676216 487.724854
-1083.912262 -0.690016 488.290667
-1085.830507 -0.703817 488.856481
-1087.748753 -0.717617 489.422294
-1089.666998 -0.731417 489.988107
-1091.585243 -0.745218 490.553921
-1093.503488 -0.759018 491.119734
-1095.421734 -0.772818 491.685547
-1097.339979 -0.786619 492.251361
-1099.258224 -0.800419 492.817174
-1101.176469 -0.814219 493.382987
-1103.094715 -0.828020 493.948801
-1105.012960 -0.841820 494.514614
-1106.931205 -0.855620 495.080427
-1108.849450 -0.869421 495.646241
-1110.767696 -0.883221 496.212054
-1112.685941 -0.897021 496.777867
-1114.604186 -0.910821 497.343681
-1116.522431 -0.924622 497.909494
-1118.440676 -0.938422 498.475307
-1120.358922 -0.952222 499.041121
-1122.277167 -0.966023 499.606934
-1124.195412 -0.979823 500.172747
-1126.113657 -0.993623 500.738561
-1128.031903 -1.007424 501.304374
-1129.950148 -1.021224 501.870188
-1131.868393 -1.035024 502.436001
-1133.786638 -1.048825 503.001814
-1135.704884 -1.062625 503.567628
-1137.623129 -1.076425 504.133441
-1139.541374 -1.090226 504.699254
-1141.459619 -1.104026 505.265068
-1143.377865 -1.117826 505.830881
-1145.296110 -1.131627 506.396694
-1147.214355 -1.145427 506.962508
-1149.132600 -1.159227 507.528321
-1151.050846 -1.173028 508.094134
-1152.969091 -1.186828 508.659948
-1154.887336 -1.200628 509.225761
-1156.805581 -1.214429 509.791574
-1158.723827 -1.228229 510.357388
-1160.642072 -1.242029 510.923201
-1162.560317 -1.255830 511.489014
-1164.478562 -1.269630 512.054828
-1166.396808 -1.283430 512.620641
-1168.315053 -1.297231 513.186454
-1170.233298 -1.311031 513.752268
-1172.151543 -1.324831 514.318081
-1174.069789 -1.338632 514.883894
-1175.988034 -1.352432 515.449708
-1177.906279 -1.366232 516.015521
-1179.824524 -1.380033 516.581334
-1181.742769 -1.393833 517.147148
-1183.661015 -1.407633 517.712961
-1185.579260 -1.421434 518.278775
-1187.497505 -1.435234 518.844588
-1189.415750 -1.449034 519.410401
-1191.333996 -1.462835 519.976215
-1193.252241 -1.476635 520.542028
-1195.170486 -1.490435 521.107841
-1197.088731 -1.504235 521.673655
-1199.006977 -1.518036 522.239468
-1200.925222 -1.531836 522.805281
-1202.843467 -1.545636 523.371095
-1204.761712 -1.559437 523.936908
-1206.679958 -1.573237 524.502721
-1208.598203 -1.587037 525.068535
-1210.516448 -1.600838 525.634348
-1212.434693 -1.614638 526.200161
-1214.352939 -1.628438 526.765975
-1216.271184 -1.642239 527.331788
-1218.189429 -1.656039 527.897601
-1220.107674 -1.669839 528.463415
-1222.025920 -1.683640 529.029228
-1223.944165 -1.697440 529.595041
-1225.862410 -1.711240 530.160855
-1227.780655 -1.725041 530.726668
-1229.698901 -1.738841 531.292481
-1231.617146 -1.752641 531.858295
-1233.535391 -1.766442 532.424108
-1235.453636 -1.780242 532.989921
-1237.371882 -1.794042 533.555735
-1239.290127 -1.807843 534.121548
-1241.208372 -1.821643 534.687362
-1243.126617 -1.835443 535.253175
-1245.044862 -1.849244 535.818988
-1246.963108 -1.863044 536.384802
-1248.881353 -1.876844 536.950615
-1250.799598 -1.890645 537.516428
-1252.717843 -1.904445 538.082242
-1254.636089 -1.918245 538.648055
-1256.554334 -1.932046 539.213868
-1258.472579 -1.945846 539.779682
-1260.390824 -1.959646 540.345495
-1262.309070 -1.973447 540.911308
-1264.227315 -1.987247 541.477122
-1266.145560 -2.001047 542.042935
-1268.063805 -2.014848 542.608748
-1269.982051 -2.028648 543.174562
-1271.900296 -2.042448 543.740375
-1273.818541 -2.056248 544.306188
-1275.736786 -2.070049 544.872002
-1277.655032 -2.083849 545.437815
-1279.573277 -2.097649 546.003628
-1281.491522 -2.111450 546.569442
-1283.409767 -2.125250 547.135255
-1285.328013 -2.139050 547.701068
-1287.246258 -2.152851 548.266882
-1289.164503 -2.166651 548.832695
-1291.082748 -2.180451 549.398508
-1293.000994 -2.194252 549.964322
-1294.919239 -2.208052 550.530135
-1296.837484 -2.221852 551.095949
-1298.755729 -2.235653 551.661762
-1300.673975 -2.249453 552.227575
-1302.592220 -2.263253 552.793389
-1304.510465 -2.277054 553.359202
-1306.428710 -2.290854 553.925015
-1308.346955 -2.304654 554.490829
-1310.265201 -2.318455 555.056642
-1312.183446 -2.332255 555.622455
-1314.101691 -2.346055 556.188269
-1316.019936 -2.359856 556.754082
-1317.938182 -2.373656 557.319895
-1319.856427 -2.387456 557.885709
-1321.774672 -2.401257 558.451522
-1323.692917 -2.415057 559.017335
-1325.611163 -2.428857 559.583149
-1327.529408 -2.442658 560.148962
-1329.447653 -2.456458 560.714775
-1331.365898 -2.470258 561.280589
-1333.284144 -2.484059 561.846402
-1335.202389 -2.497859 562.412215
-1337.120634 -2.511659 562.978029
-1339.038879 -2.525460 563.543842
-1340.957125 -2.539260 564.109655
-1342.875370 -2.553060 564.675469
-1344.793615 -2.566861 565.241282
-1346.711860 -2.580661 565.807095
-1348.630106 -2.594461 566.372909
-1350.548351 -2.608262 566.938722
-1352.466596 -2.622062 567.504536
-1354.384841 -2.635862 568.070349
-1356.303087 -2.649662 568.636162
-1358.221332 -2.663463 569.201976
-1360.139577 -2.677263 569.767789
-1362.057822 -2.691063 570.333602
-1363.976068 -2.704864 570.899416
-1365.894313 -2.718664 571.465229
-1367.812558 -2.732464 572.031042
-1369.730803 -2.746265 572.596856
-1371.649048 -2.760065 573.162669
-1373.567294 -2.773865 573.728482
-1375.485539 -2.787666 574.294296
-1377.403784 -2.801466 574.860109
-1379.322029 -2.815266 575.425922
-1381.240275 -2.829067 575.991736
-1383.158520 -2.842867 576.557549
-1385.076765 -2.856667 577.123362
-1386.995010 -2.870468 577.689176
-1388.913256 -2.884268 578.254989
-1390.831501 -2.898068 578.820802
-1392.749746 -2.911869 579.386616
-1394.667991 -2.925669 579.952429
-1396.586237 -2.939469 580.518242
-1398.504482 -2.953270 581.084056
-1400.422727 -2.967070 581.649869
-1402.340972 -2.980870 582.215682
-1404.259218 -2.994671 582.781496
-1406.177463 -3.008471 583.347309
-1408.095708 -3.022271 583.913123
-1410.013953 -3.036072 584.478936
-1411.932199 -3.049872 585.044749
-1413.850444 -3.063672 585.610563
-1415.768689 -3.077473 586.176376
-1417.686934 -3.091273 586.742189
-1419.605180 -3.105073 587.308003
-1421.523425 -3.118874 587.873816
-1423.441670 -3.132674 588.439629
-1425.359915 -3.146474 589.005443
-1427.278160 -3.160275 589.571256
-1429.196406 -3.174075 590.137069
-1431.114651 -3.187875 590.702883
-1433.032896 -3.201676 591.268696
-1434.951141 -3.215476 591.834509
-1436.869387 -3.229276 592.400323
-1438.787632 -3.243076 592.966136
-1440.705877 -3.256877 593.531949
-1442.624122 -3.270677 594.097763
-1444.542368 -3.284477 594.663576
-1446.460613 -3.298278 595.229389
-1448.378858 -3.312078 595.795203
-1450.297103 -3.325878 596.361016
-1452.215349 -3.339679 596.926829
-1454.133594 -3.353479 597.492643
-1456.051839 -3.367279 598.058456
-1457.970084 -3.381080 598.624269
-1459.888330 -3.394880 599.190083
-1461.806575 -3.408680 599.755896
-1463.724820 -3.422481 600.321710
-1465.643065 -3.436281 600.887523
-1467.561311 -3.450081 601.453336
-1469.479556 -3.463882 602.019150
-1471.397801 -3.477682 602.584963
-1473.316046 -3.491482 603.150776
-1475.234292 -3.505283 603.716590
-1477.152537 -3.519083 604.282403
-1479.070782 -3.532883 604.848216
-1480.989027 -3.546684 605.414030
-1482.907273 -3.560484 605.979843
-1484.825518 -3.574284 606.545656
-1486.743763 -3.588085 607.111470
-1488.662008 -3.601885 607.677283
-1490.580253 -3.615685 608.243096
-1492.498499 -3.629486 608.808910
-1494.416744 -3.643286 609.374723
-1496.334989 -3.657086 609.940536
-1498.253234 -3.670887 610.506350
-1500.171480 -3.684687 611.072163
-1502.089725 -3.698487 611.637976
-1504.007970 -3.712288 612.203790
-1505.926215 -3.726088 612.769603
-1507.844461 -3.739888 613.335416
-1509.762706 -3.753689 613.901230
-1511.680951 -3.767489 614.467043
-1513.599196 -3.781289 615.032856
-1515.517442 -3.795090 615.598670
-1517.435687 -3.808890 616.164483
-1519.353932 -3.822690 616.730297
-1521.272177 -3.836490 617.296110
-1523.190423 -3.850291 617.861923
-1525.108668 -3.864091 618.427737
-1527.026913 -3.877891 618.993550
-1528.945158 -3.891692 619.559363
-1530.863404 -3.905492 620.125177
-1532.781649 -3.919292 620.690990
-1534.699894 -3.933093 621.256803
-1536.618139 -3.946893 621.822617
-1538.536385 -3.960693 622.388430
-1540.454630 -3.974494 622.954243
-1544.000000 -4.000000 624.000000
-1546.000000 -4.000000 624.000000
-1548.000000 -4.000000 624.000000
-1550.000000 -4.000000 624.000000
-1552.000000 -4.000000 624.000000
-1554.000000 -4.000000 624.000000
-1556.000000 -4.000000 624.000000
-1558.000000 -4.000000 624.000000
-1560.000000 -4.000000 624.000000
-1562.000000 -4.000000 624.000000
-1564.000000 -4.000000 624.000000
-1566.000000 -4.000000 624.000000
-1568.000000 -4.000000 624.000000
-1570.000000 -4.000000 624.000000
-1572.000000 -4.000000 624.000000
-1574.000000 -4.000000 624.000000
-1576.000000 -4.000000 624.000000
-1578.000000 -4.000000 624.000000
-1580.000000 -4.000000 624.000000
-1582.000000 -4.000000 624.000000
-1584.000000 -4.000000 624.000000
-1586.000000 -4.000000 624.000000
-1588.000000 -4.000000 624.000000
-1590.000000 -4.000000 624.000000
-1592.000000 -4.000000 624.000000
-1594.000000 -4.000000 624.000000
-1596.000000 -4.000000 624.000000
-1598.000000 -4.000000 624.000000
-1600.000000 -4.000000 624.000000
-1602.000000 -4.000000 624.000000
-1604.000000 -4.000000 624.000000
-1606.000000 -4.000000 624.000000
-1608.000000 -4.000000 624.000000
-1610.000000 -4.000000 624.000000
-1612.000000 -4.000000 624.000000
-1614.000000 -4.000000 624.000000
-1616.000000 -4.000000 624.000000
-1618.000000 -4.000000 624.000000
-1620.000000 -4.000000 624.000000
-1622.000000 -4.000000 624.000000
-1624.000000 -4.000000 624.000000
-1626.000000 -4.000000 624.000000
-1628.000000 -4.000000 624.000000
-1630.000000 -4.000000 624.000000
-1632.000000 -4.000000 624.000000
-1634.000000 -4.000000 624.000000
-1636.000000 -4.000000 624.000000
-1638.000000 -4.000000 624.000000
-1640.000000 -4.000000 624.000000
-1642.000000 -4.000000 624.000000
-1644.000000 -4.000000 624.000000
-1646.000000 -4.000000 624.000000
-1648.000000 -4.000000 624.000000
-1650.000000 -4.000000 624.000000
-1652.000000 -4.000000 624.000000
-1654.000000 -4.000000 624.000000
-1656.000000 -4.000000 624.000000
-1658.000000 -4.000000 624.000000
-1660.000000 -4.000000 624.000000
-1662.000000 -4.000000 624.000000
-1664.000000 -4.000000 624.000000
-1666.000000 -4.000000 624.000000
-1668.000000 -4.000000 624.000000
-1670.000000 -4.000000 624.000000
-1672.000000 -4.000000 624.000000
-1674.000000 -4.000000 624.000000
-1676.000000 -4.000000 624.000000
-1678.000000 -4.000000 624.000000
-1680.000000 -4.000000 624.000000
-1682.000000 -4.000000 624.000000
-1684.000000 -4.000000 624.000000
-1686.000000 -4.000000 624.000000
-1688.000000 -4.000000 624.000000
-1690.000000 -4.000000 624.000000
-1692.000000 -4.000000 624.000000
-1694.000000 -4.000000 624.000000
-1696.000000 -4.000000 624.000000
-1698.000000 -4.000000 624.000000
-1700.000000 -4.000000 624.000000
-1702.000000 -4.000000 624.000000
-1704.000000 -4.000000 624.000000
-1706.000000 -4.000000 624.000000
-1708.000000 -4.000000 624.000000
-1710.000000 -4.000000 624.000000
-1712.000000 -4.000000 624.000000
-1714.000000 -4.000000 624.000000
-1716.000000 -4.000000 624.000000
-1718.000000 -4.000000 624.000000
-1720.000000 -4.000000 624.000000
-1722.000000 -4.000000 624.000000
-1724.000000 -4.000000 624.000000
-1726.000000 -4.000000 624.000000
-1728.000000 -4.000000 624.000000
-1730.000000 -4.000000 624.000000
-1732.000000 -4.000000 624.000000
-1734.000000 -4.000000 624.000000
-1736.000000 -4.000000 624.000000
-1738.000000 -4.000000 624.000000
-1740.000000 -4.000000 624.000000
-1742.000000 -4.000000 624.000000
-1744.000000 -4.000000 624.000000
-1746.000000 -4.000000 624.000000
-1748.000000 -4.000000 624.000000
-1750.000000 -4.000000 624.000000
-1752.000000 -4.000000 624.000000
-1754.000000 -4.000000 624.000000
-1756.000000 -4.000000 624.000000
-1758.000000 -4.000000 624.000000
-1760.000000 -4.000000 624.000000
-1762.000000 -4.000000 624.000000
-1764.000000 -4.000000 624.000000
-1766.000000 -4.000000 624.000000
-1768.000000 -4.000000 624.000000
-1770.000000 -4.000000 624.000000
-1772.000000 -4.000000 624.000000
-1774.000000 -4.000000 624.000000
-1776.000000 -4.000000 624.000000
-1778.000000 -4.000000 624.000000
-1780.000000 -4.000000 624.000000
-1782.000000 -4.000000 624.000000
-1784.000000 -4.000000 624.000000
-1786.000000 -4.000000 624.000000
-1788.000000 -4.000000 624.000000
-1790.000000 -4.000000 624.000000
-1792.000000 -4.000000 624.000000
-1794.000000 -4.000000 624.000000
-1796.000000 -4.000000 624.000000
-1798.000000 -4.000000 624.000000
-1800.000000 -4.000000 624.000000
-1802.000000 -4.000000 624.000000
-1804.000000 -4.000000 624.000000
-1806.000000 -4.000000 624.000000
-1808.000000 -4.000000 624.000000
-1810.000000 -4.000000 624.000000
-1812.000000 -4.000000 624.000000
-1814.000000 -4.000000 624.000000
-1816.000000 -4.000000 624.000000
-1818.000000 -4.000000 624.000000
-1820.000000 -4.000000 624.000000
-1822.000000 -4.000000 624.000000
-1824.000000 -4.000000 624.000000
-1826.000000 -4.000000 624.000000
-1828.000000 -4.000000 624.000000
-1830.000000 -4.000000 624.000000
-1832.000000 -4.000000 624.000000
-1834.000000 -4.000000 624.000000
-1836.000000 -4.000000 624.000000
-1838.000000 -4.000000 624.000000
-1840.000000 -4.000000 624.000000
-1842.000000 -4.000000 624.000000
-1844.000000 -4.000000 624.000000
-1846.000000 -4.000000 624.000000
-1848.000000 -4.000000 624.000000
-1850.000000 -4.000000 624.000000
-1852.000000 -4.000000 624.000000
-1854.000000 -4.000000 624.000000
-1856.000000 -4.000000 624.000000
-1858.000000 -4.000000 624.000000
-1860.000000 -4.000000 624.000000
-1862.000000 -4.000000 624.000000
-1864.000000 -4.000000 624.000000
-1866.000000 -4.000000 624.000000
-1868.000000 -4.000000 624.000000
-1870.000000 -4.000000 624.000000
-1872.000000 -4.000000 624.000000
-1874.000000 -4.000000 624.000000
-1876.000000 -4.000000 624.000000
-1878.000000 -4.000000 624.000000
-1880.000000 -4.000000 624.000000
-1882.000000 -4.000000 624.000000
-1884.000000 -4.000000 624.000000
-1886.000000 -4.000000 624.000000
-1888.000000 -4.000000 624.000000
-1890.000000 -4.000000 624.000000
-1892.000000 -4.000000 624.000000
-1894.000000 -4.000000 624.000000
-1896.000000 -4.000000 624.000000
-1898.000000 -4.000000 624.000000
-1900.000000 -4.000000 624.000000
-1902.000000 -4.000000 624.000000
-1904.000000 -4.000000 624.000000
-1906.000000 -4.000000 624.000000
-1908.000000 -4.000000 624.000000
-1910.000000 -4.000000 624.000000
-1912.000000 -4.000000 624.000000
-1914.000000 -4.000000 624.000000
-1916.000000 -4.000000 624.000000
-1918.000000 -4.000000 624.000000
-1920.000000 -4.000000 624.000000
-1922.000000 -4.000000 624.000000
-1924.000000 -4.000000 624.000000
-1926.000000 -4.000000 624.000000
-1928.000000 -4.000000 624.000000
-1930.000000 -4.000000 624.000000
-1932.000000 -4.000000 624.000000
-1934.000000 -4.000000 624.000000
-1936.000000 -4.000000 624.000000
-1938.000000 -4.000000 624.000000
-1940.000000 -4.000000 624.000000
-1942.000000 -4.000000 624.000000
-1944.000000 -4.000000 624.000000
-1946.000000 -4.000000 624.000000
-1948.000000 -4.000000 624.000000
-1950.000000 -4.000000 624.000000
-1952.000000 -4.000000 624.000000
-1956.000000 -4.000000 624.000000
-1957.921339 -4.000000 624.555387
-1959.842679 -4.000000 625.110774
-1961.764018 -4.000000 625.666162
-1963.685358 -4.000000 626.221549
-1965.606697 -4.000000 626.776936
-1967.528036 -4.000000 627.332323
-1969.449376 -4.000000 627.887710
-1971.370715 -4.000000 628.443097
-1973.292055 -4.000000 628.998485
-1975.213394 -4.000000 629.553872
-1977.134733 -4.000000 630.109259
-1979.056073 -4.000000 630.664646
-1980.977412 -4.000000 631.220033
-1982.898752 -4.000000 631.775420
-1984.820091 -4.000000 632.330808
-1986.741430 -4.000000 632.886195
-1988.662770 -4.000000 633.441582
-1990.584109 -4.000000 633.996969
-1992.505449 -4.000000 634.552356
-1994.426788 -4.000000 635.107743
-1996.348127 -4.000000 635.663131
-1998.269467 -4.000000 636.218518
-2000.190806 -4.000000 636.773905
-2002.112146 -4.000000 637.329292
-2004.033485 -4.000000 637.884679
-2005.954824 -4.000000 638.440066
-2007.876164 -4.000000 638.995454
-2009.797503 -4.000000 639.550841
-2011.718843 -4.000000 640.106228
-2013.640182 -4.000000 640.661615
-2015.561521 -4.000000 641.217002
-2017.482861 -4.000000 641.772389
-2019.404200 -4.000000 642.327777
-2021.325540 -4.000000 642.883164
-2023.246879 -4.000000 643.438551
-2025.168218 -4.000000 643.993938
-2027.089558 -4.000000 644.549325
-2029.010897 -4.000000 645.104712
-2030.932237 -4.000000 645.660100
-2032.853576 -4.000000 646.215487
-2034.774915 -4.000000 646.770874
-2036.696255 -4.000000 647.326261
-2038.617594 -4.000000 647.881648
-2040.538934 -4.000000 648.437035
-2042.460273 -4.000000 648.992423
-2044.381612 -4.000000 649.547810
-2046.302952 -4.000000 650.103197
-2048.224291 -4.000000 650.658584
-2050.145631 -4.000000 651.213971
-2052.066970 -4.000000 651.769359
-2053.988309 -4.000000 652.324746
-2055.909649 -4.000000 652.880133
-2057.830988 -4.000000 653.435520
-2059.752328 -4.000000 653.990907
-2061.673667 -4.000000 654.546294
-2063.595006 -4.000000 655.101682
-2065.516346 -4.000000 655.657069
-2067.437685 -4.000000 656.212456
-2069.359025 -4.000000 656.767843
-2071.280364 -4.000000 657.323230
-2073.201703 -4.000000 657.878617
-2075.123043 -4.000000 658.434005
-2077.044382 -4.000000 658.989392
-2078.965722 -4.000000 659.544779
-2080.887061 -4.000000 660.100166
-2082.808400 -4.000000 660.655553
-2084.729740 -4.000000 661.210940
-2086.651079 -4.000000 661.766328
-2088.572419 -4.000000 662.321715
-2090.493758 -4.000000 662.877102
-2092.415097 -4.000000 663.432489
-2094.336437 -4.000000 663.987876
-2096.257776 -4.000000 664.543263
-2098.179116 -4.000000 665.098651
-2100.100455 -4.000000 665.654038
-2102.021794 -4.000000 666.209425
-2103.943134 -4.000000 666.764812
-2105.864473 -4.000000 667.320199
-2107.785813 -4.000000 667.875586
-2109.707152 -4.000000 668.430974
-2111.628491 -4.000000 668.986361
-2113.549831 -4.000000 669.541748
-2115.471170 -4.000000 670.097135
-2117.392510 -4.000000 670.652522
-2119.313849 -4.000000 671.207909
-2121.235188 -4.000000 671.763297
-2123.156528 -4.000000 672.318684
-2125.077867 -4.000000 672.874071
-2126.999207 -4.000000 673.429458
-2128.920546 -4.000000 673.984845
-2130.841885 -4.000000 674.540233
-2132.763225 -4.000000 675.095620
-2134.684564 -4.000000 675.651007
-2136.605904 -4.000000 676.206394
-2138.527243 -4.000000 676.761781
-2140.448582 -4.000000 677.317168
-2142.369922 -4.000000 677.872556
-2144.291261 -4.000000 678.427943
-2146.212601 -4.000000 678.983330
-2148.133940 -4.000000 679.538717
-2150.055279 -4.000000 680.094104
-2151.976619 -4.000000 680.649491
-2153.897958 -4.000000 681.204879
-2155.819298 -4.000000 681.760266
-2157.740637 -4.000000 682.315653
-2159.661976 -4.000000 682.871040
-2161.583316 -4.000000 683.426427
-2163.504655 -4.000000 683.981814
-2165.425995 -4.000000 684.537202
-2167.347334 -4.000000 685.092589
-2169.268673 -4.000000 685.647976
-2171.190013 -4.000000 686.203363
-2173.111352 -4.000000 686.758750
-2175.032692 -4.000000 687.314137
-2176.954031 -4.000000 687.869525
-2178.875370 -4.000000 688.424912
-2180.796710 -4.000000 688.980299
-2182.718049 -4.000000 689.535686
-2184.639389 -4.000000 690.091073
-2186.560728 -4.000000 690.646460
-2188.482067 -4.000000 691.201848
-2190.403407 -4.000000 691.757235
-2192.324746 -4.000000 692.312622
-2194.246086 -4.000000 692.868009
-2196.167425 -4.000000 693.423396
-2198.088764 -4.000000 693.978783
-2200.010104 -4.000000 694.534171
-2201.931443 -4.000000 695.089558
-2203.852783 -4.000000 695.644945
-2205.774122 -4.000000 696.200332
-2207.695461 -4.000000 696.755719
-2209.616801 -4.000000 697.311106
-2212.000000 -4.000000 698.000000
-2213.984556 -4.248069 698.000000
-2215.969112 -4.496139 698.000000
-2217.953667 -4.744208 698.000000
-2219.938223 -4.992278 698.000000
-2221.922779 -5.240347 698.000000
-2223.907335 -5.488417 698.000000
-2225.891890 -5.736486 698.000000
-2228.000000 -6.000000 698.000000
-2229.778727 -6.024705 697.085932
-2231.557454 -6.049409 696.171864
-2233.336181 -6.074114 695.257796
-2235.114908 -6.098818 694.343728
-2236.893635 -6.123523 693.429660
-2238.672361 -6.148227 692.515592
-2240.451088 -6.172932 691.601524
-2242.229815 -6.197636 690.687456
-2244.008542 -6.222341 689.773388
-2245.787269 -6.247045 688.859320
-2247.565996 -6.271750 687.945252
-2249.344723 -6.296454 687.031184
-2251.123450 -6.321159 686.117116
-2252.902177 -6.345864 685.203048
-2254.680904 -6.370568 684.288980
-2256.459630 -6.395273 683.374912
-2258.238357 -6.419977 682.460844
-2260.017084 -6.444682 681.546776
-2261.795811 -6.469386 680.632708
-2263.574538 -6.494091 679.718640
-2265.353265 -6.518795 678.804572
-2267.131992 -6.543500 677.890504
-2268.910719 -6.568204 676.976436
-2270.689446 -6.592909 676.062368
-2272.468173 -6.617614 675.148300
-2274.246899 -6.642318 674.234232
-2276.025626 -6.667023 673.320164
-2277.804353 -6.691727 672.406096
-2279.583080 -6.716432 671.492028
-2281.361807 -6.741136 670.577960
-2283.140534 -6.765841 669.663892
-2284.919261 -6.790545 668.749824
-2286.697988 -6.815250 667.835756
-2288.476715 -6.839954 666.921688
-2290.255442 -6.864659 666.007620
-2292.034168 -6.889363 665.093552
-2293.812895 -6.914068 664.179484
-2295.591622 -6.938773 663.265416
-2297.370349 -6.963477 662.351348
-2299.149076 -6.988182 661.437280
-2300.927803 -7.012886 660.523212
-2302.706530 -7.037591 659.609144
-2304.485257 -7.062295 658.695076
-2306.263984 -7.087000 657.781008
-2308.042711 -7.111704 656.866940
-2309.821438 -7.136409 655.952872
-2311.600164 -7.161113 655.038804
-2313.378891 -7.185818 654.124736
-2315.157618 -7.210522 653.210668
-2316.936345 -7.235227 652.296600
-2318.715072 -7.259932 651.382532
-2320.493799 -7.284636 650.468464
-2322.272526 -7.309341 649.554396
-2324.051253 -7.334045 648.640328
-2325.829980 -7.358750 647.726260
-2327.608707 -7.383454 646.812192
-2329.387433 -7.408159 645.898124
-2331.166160 -7.432863 644.984056
-2332.944887 -7.457568 644.069989
-2334.723614 -7.482272 643.155921
-2336.502341 -7.506977 642.241853
-2338.281068 -7.531681 641.327785
-2340.059795 -7.556386 640.413717
-2341.838522 -7.581091 639.499649
-2343.617249 -7.605795 638.585581
-2345.395976 -7.630500 637.671513
-2347.174702 -7.655204 636.757445
-2348.953429 -7.679909 635.843377
-2350.732156 -7.704613 634.929309
-2352.510883 -7.729318 634.015241
-2354.289610 -7.754022 633.101173
-2356.068337 -7.778727 632.187105
-2357.847064 -7.803431 631.273037
-2359.625791 -7.828136 630.358969
-2361.404518 -7.852841 629.444901
-2363.183245 -7.877545 628.530833
-2364.961971 -7.902250 627.616765
-2366.740698 -7.926954 626.702697
-2368.519425 -7.951659 625.788629
-2372.000000 -8.000000 624.000000
-2373.999935 -8.000000 624.016129
-2375.999870 -8.000000 624.032257
-2377.999805 -8.000000 624.048386
-2379.999740 -8.000000 624.064514
-2381.999675 -8.000000 624.080643
-2383.999610 -8.000000 624.096771
-2385.999545 -8.000000 624.112900
-2387.999480 -8.000000 624.129028
-2389.999415 -8.000000 624.145157
-2391.999350 -8.000000 624.161285
-2393.999285 -8.000000 624.177414
-2395.999220 -8.000000 624.193542
-2397.999155 -8.000000 624.209671
-2399.999090 -8.000000 624.225799
-2401.999025 -8.000000 624.241928
-2403.998959 -8.000000 624.258056
-2405.998894 -8.000000 624.274185
-2407.998829 -8.000000 624.290313
-2409.998764 -8.000000 624.306442
-2411.998699 -8.000000 624.322570
-2413.998634 -8.000000 624.338699
-2415.998569 -8.000000 624.354827
-2417.998504 -8.000000 624.370956
-2419.998439 -8.000000 624.387084
-2421.998374 -8.000000 624.403213
-2423.998309 -8.000000 624.419341
-2425.998244 -8.000000 624.435470
-2427.998179 -8.000000 624.451598
-2429.998114 -8.000000 624.467727
-2431.998049 -8.000000 624.483855
-2433.997984 -8.000000 624.499984
-2435.997919 -8.000000 624.516112
-2437.997854 -8.000000 624.532241
-2439.997789 -8.000000 624.548369
-2441.997724 -8.000000 624.564498
-2443.997659 -8.000000 624.580626
-2445.997594 -8.000000 624.596755
-2447.997529 -8.000000 624.612883
-2449.997464 -8.000000 624.629012
-2451.997399 -8.000000 624.645140
-2453.997334 -8.000000 624.661269
-2455.997269 -8.000000 624.677397
-2457.997204 -8.000000 624.693526
-2459.997139 -8.000000 624.709654
-2461.997074 -8.000000 624.725783
-2463.997008 -8.000000 624.741911
-2465.996943 -8.000000 624.758040
-2467.996878 -8.000000 624.774168
-2469.996813 -8.000000 624.790297
-2471.996748 -8.000000 624.806425
-2473.996683 -8.000000 624.822554
-2475.996618 -8.000000 624.838682
-2477.996553 -8.000000 624.854811
-2479.996488 -8.000000 624.870939
-2481.996423 -8.000000 624.887068
-2483.996358 -8.000000 624.903196
-2485.996293 -8.000000 624.919325
-2487.996228 -8.000000 624.935453
-2489.996163 -8.000000 624.951582
-2491.996098 -8.000000 624.967710
-2493.996033 -8.000000 624.983839
-2495.995968 -8.000000 624.999967
-2497.995903 -8.000000 625.016096
-2499.995838 -8.000000 625.032224
-2501.995773 -8.000000 625.048353
-2503.995708 -8.000000 625.064482
-2505.995643 -8.000000 625.080610
-2507.995578 -8.000000 625.096739
-2509.995513 -8.000000 625.112867
-2511.995448 -8.000000 625.128996
-2513.995383 -8.000000 625.145124
-2515.995318 -8.000000 625.161253
-2517.995253 -8.000000 625.177381
-2519.995188 -8.000000 625.193510
-2521.995123 -8.000000 625.209638
-2523.995057 -8.000000 625.225767
-2525.994992 -8.000000 625.241895
-2527.994927 -8.000000 625.258024
-2529.994862 -8.000000 625.274152
-2531.994797 -8.000000 625.290281
-2533.994732 -8.000000 625.306409
-2535.994667 -8.000000 625.322538
-2537.994602 -8.000000 625.338666
-2539.994537 -8.000000 625.354795
-2541.994472 -8.000000 625.370923
-2543.994407 -8.000000 625.387052
-2545.994342 -8.000000 625.403180
-2547.994277 -8.000000 625.419309
-2549.994212 -8.000000 625.435437
-2551.994147 -8.000000 625.451566
-2553.994082 -8.000000 625.467694
-2555.994017 -8.000000 625.483823
-2557.993952 -8.000000 625.499951
-2559.993887 -8.000000 625.516080
-2561.993822 -8.000000 625.532208
-2563.993757 -8.000000 625.548337
-2565.993692 -8.000000 625.564465
-2567.993627 -8.000000 625.580594
-2569.993562 -8.000000 625.596722
-2571.993497 -8.000000 625.612851
-2573.993432 -8.000000 625.628979
-2575.993367 -8.000000 625.645108
-2577.993302 -8.000000 625.661236
-2579.993237 -8.000000 625.677365
-2581.993172 -8.000000 625.693493
-2583.993106 -8.000000 625.709622
-2585.993041 -8.000000 625.725750
-2587.992976 -8.000000 625.741879
-2589.992911 -8.000000 625.758007
-2591.992846 -8.000000 625.774136
-2593.992781 -8.000000 625.790264
-2595.992716 -8.000000 625.806393
-2597.992651 -8.000000 625.822521
-2599.992586 -8.000000 625.838650
-2601.992521 -8.000000 625.854778
-2603.992456 -8.000000 625.870907
-2605.992391 -8.000000 625.887035
-2607.992326 -8.000000 625.903164
-2609.992261 -8.000000 625.919292
-2611.992196 -8.000000 625.935421
-2613.992131 -8.000000 625.951549
-2615.992066 -8.000000 625.967678
-2617.992001 -8.000000 625.983806
-2620.000000 -8.000000 626.000000
-2622.000000 -8.000000 626.000000
-2624.000000 -8.000000 626.000000
-2628.000000 -8.000000 626.000000
-2629.990494 -7.897923 625.834126
-2631.980988 -7.795847 625.668251
-2633.971482 -7.693770 625.502377
-2635.961976 -7.591694 625.336502
-2637.952470 -7.489617 625.170628
-2639.942963 -7.387540 625.004753
-2641.933457 -7.285464 624.838879
-2643.923951 -7.183387 624.673004
-2645.914445 -7.081311 624.507130
-2647.904939 -6.979234 624.341255
-2649.895433 -6.877157 624.175381
-2651.885927 -6.775081 624.009506
-2653.876421 -6.673004 623.843632
-2655.866915 -6.570927 623.677757
-2657.857409 -6.468851 623.511883
-2659.847903 -6.366774 623.346008
-2661.838397 -6.264698 623.180134
-2663.828890 -6.162621 623.014259
-2665.819384 -6.060544 622.848385
-2667.809878 -5.958468 622.682510
-2669.800372 -5.856391 622.516636
-2671.790866 -5.754315 622.350761
-2673.781360 -5.652238 622.184887
-2675.771854 -5.550161 622.019012
-2677.762348 -5.448085 621.853138
-2679.752842 -5.346008 621.687263
-2681.743336 -5.243932 621.521389
-2683.733830 -5.141855 621.355514
-2685.724323 -5.039778 621.189640
-2687.714817 -4.937702 621.023765
-2689.705311 -4.835625 620.857891
-2691.695805 -4.733548 620.692016
-2693.686299 -4.631472 620.526142
-2695.676793 -4.529395 620.360267
-2697.667287 -4.427319 620.194393
-2699.657781 -4.325242 620.028518
-2701.648275 -4.223165 619.862644
-2703.638769 -4.121089 619.696769
-2705.629263 -4.019012 619.530895
-2707.619757 -3.916936 619.365020
-2709.610250 -3.814859 619.199146
-2711.600744 -3.712782 619.033271
-2713.591238 -3.610706 618.867397
-2715.581732 -3.508629 618.701522
-2717.572226 -3.406553 618.535648
-2719.562720 -3.304476 618.369773
-2721.553214 -3.202399 618.203899
-2723.543708 -3.100323 618.038024
-2725.534202 -2.998246 617.872150
-2727.524696 -2.896169 617.706275
-2729.515190 -2.794093 617.540401
-2731.505683 -2.692016 617.374526
-2733.496177 -2.589940 617.208652
-2735.486671 -2.487863 617.042777
-2737.477165 -2.385786 616.876903
-2739.467659 -2.283710 616.711028
-2741.458153 -2.181633 616.545154
-2743.448647 -2.079557 616.379279
-2745.439141 -1.977480 616.213405
-2747.429635 -1.875403 616.047530
-2749.420129 -1.773327 615.881656
-2751.410623 -1.671250 615.715781
-2753.401117 -1.569174 615.549907
-2755.391610 -1.467097 615.384032
-2757.382104 -1.365020 615.218158
-2759.372598 -1.262944 615.052283
-2761.363092 -1.160867 614.886409
-2763.353586 -1.058790 614.720534
-2765.344080 -0.956714 614.554660
-2767.334574 -0.854637 614.388786
-2769.325068 -0.752561 614.222911
-2771.315562 -0.650484 614.057037
-2773.306056 -0.548407 613.891162
-2775.296550 -0.446331 613.725288
-2777.287043 -0.344254 613.559413
-2779.277537 -0.242178 613.393539
-2781.268031 -0.140101 613.227664
-2783.258525 -0.038024 613.061790
-2785.249019 0.064052 612.895915
-2787.239513 0.166129 612.730041
-2789.230007 0.268205 612.564166
-2791.220501 0.370282 612.398292
-2793.210995 0.472359 612.232417
-2795.201489 0.574435 612.066543
-2797.191983 0.676512 611.900668
-2799.182477 0.778589 611.734794
-2801.172970 0.880665 611.568919
-2803.163464 0.982742 611.403045
-2805.153958 1.084818 611.237170
-2807.144452 1.186895 611.071296
-2809.134946 1.288972 610.905421
-2811.125440 1.391048 610.739547
-2813.115934 1.493125 610.573672
-2815.106428 1.595201 610.407798
-2817.096922 1.697278 610.241923
-2819.087416 1.799355 610.076049
-2821.077910 1.901431 609.910174
-2823.068403 2.003508 609.744300
-2825.058897 2.105584 609.578425
-2827.049391 2.207661 609.412551
-2829.039885 2.309738 609.246676
-2831.030379 2.411814 609.080802
-2833.020873 2.513891 608.914927
-2835.011367 2.615968 608.749053
-2837.001861 2.718044 608.583178
-2838.992355 2.820121 608.417304
-2840.982849 2.922197 608.251429
-2842.973343 3.024274 608.085555
-2844.963837 3.126351 607.919680
-2846.954330 3.228427 607.753806
-2848.944824 3.330504 607.587931
-2850.935318 3.432580 607.422057
-2852.925812 3.534657 607.256182
-2854.916306 3.636734 607.090308
-2856.906800 3.738810 606.924433
-2858.897294 3.840887 606.758559
-2860.887788 3.942963 606.592684
-2862.878282 4.045040 606.426810
-2864.868776 4.147117 606.260935
-2866.859270 4.249193 606.095061
-2868.849763 4.351270 605.929186
-2870.840257 4.453347 605.763312
-2872.830751 4.555423 605.597437
-2874.821245 4.657500 605.431563
-2876.811739 4.759576 605.265688
-2878.802233 4.861653 605.099814
-2880.792727 4.963730 604.933939
-2882.783221 5.065806 604.768065
-2884.773715 5.167883 604.602190
-2886.764209 5.269959 604.436316
-2888.754703 5.372036 604.270441
-2890.745197 5.474113 604.104567
-2892.735690 5.576189 603.938692
-2894.726184 5.678266 603.772818
-2896.716678 5.780342 603.606943
-2898.707172 5.882419 603.441069
-2900.697666 5.984496 603.275194
-2902.688160 6.086572 603.109320
-2904.678654 6.188649 602.943446
-2906.669148 6.290726 602.777571
-2908.659642 6.392802 602.611697
-2910.650136 6.494879 602.445822
-2912.640630 6.596955 602.279948
-2914.631123 6.699032 602.114073
-2916.621617 6.801109 601.948199
-2918.612111 6.903185 601.782324
-2920.602605 7.005262 601.616450
-2922.593099 7.107338 601.450575
-2924.583593 7.209415 601.284701
-2926.574087 7.311492 601.118826
-2928.564581 7.413568 600.952952
-2930.555075 7.515645 600.787077
-2932.545569 7.617721 600.621203
-2934.536063 7.719798 600.455328
-2936.526557 7.821875 600.289454
-2940.000000 8.000000 600.000000
-2941.893545 8.000000 600.643805
-2943.787091 8.000000 601.287611
-2945.680636 8.000000 601.931416
-2947.574182 8.000000 602.575222
-2949.467727 8.000000 603.219027
-2951.361273 8.000000 603.862833
-2953.254818 8.000000 604.506638
-2955.148364 8.000000 605.150444
-2957.041909 8.000000 605.794249
-2958.935455 8.000000 606.438055
-2960.829000 8.000000 607.081860
-2962.722546 8.000000 607.725666
-2964.616091 8.000000 608.369471
-2966.509637 8.000000 609.013277
-2968.403182 8.000000 609.657082
-2970.296728 8.000000 610.300887
-2972.190273 8.000000 610.944693
-2974.083819 8.000000 611.588498
-2975.977364 8.000000 612.232304
-2977.870910 8.000000 612.876109
-2979.764455 8.000000 613.519915
-2981.658001 8.000000 614.163720
-2983.551546 8.000000 614.807526
-2985.445092 8.000000 615.451331
-2987.338637 8.000000 616.095137
-2989.232183 8.000000 616.738942
-2991.125728 8.000000 617.382748
-2993.019274 8.000000 618.026553
-2994.912819 8.000000 618.670359
-2996.806365 8.000000 619.314164
-2998.699910 8.000000 619.957969
-3000.593456 8.000000 620.601775
-3002.487001 8.000000 621.245580
-3004.380547 8.000000 621.889386
-3006.274092 8.000000 622.533191
-3008.167638 8.000000 623.176997
-3010.061183 8.000000 623.820802
-3011.954729 8.000000 624.464608
-3013.848274 8.000000 625.108413
-3015.741820 8.000000 625.752219
-3017.635365 8.000000 626.396024
-3019.528911 8.000000 627.039830
-3021.422456 8.000000 627.683635
-3023.316002 8.000000 628.327441
-3025.209547 8.000000 628.971246
-3027.103093 8.000000 629.615051
-3028.996638 8.000000 630.258857
-3030.890184 8.000000 630.902662
-3032.783729 8.000000 631.546468
-3034.677274 8.000000 632.190273
-3036.570820 8.000000 632.834079
-3038.464365 8.000000 633.477884
-3040.357911 8.000000 634.121690
-3042.251456 8.000000 634.765495
-3044.145002 8.000000 635.409301
-3046.038547 8.000000 636.053106
-3047.932093 8.000000 636.696912
-3049.825638 8.000000 637.340717
-3051.719184 8.000000 637.984523
-3053.612729 8.000000 638.628328
-3055.506275 8.000000 639.272133
-3057.399820 8.000000 639.915939
-3059.293366 8.000000 640.559744
-3061.186911 8.000000 641.203550
-3063.080457 8.000000 641.847355
-3064.974002 8.000000 642.491161
-3066.867548 8.000000 643.134966
-3068.761093 8.000000 643.778772
-3070.654639 8.000000 644.422577
-3072.548184 8.000000 645.066383
-3074.441730 8.000000 645.710188
-3076.335275 8.000000 646.353994
-3078.228821 8.000000 646.997799
-3080.122366 8.000000 647.641605
-3082.015912 8.000000 648.285410
-3083.909457 8.000000 648.929215
-3085.803003 8.000000 649.573021
-3087.696548 8.000000 650.216826
-3089.590094 8.000000 650.860632
-3091.483639 8.000000 651.504437
-3093.377185 8.000000 652.148243
-3095.270730 8.000000 652.792048
-3097.164276 8.000000 653.435854
-3099.057821 8.000000 654.079659
-3100.951367 8.000000 654.723465
-3102.844912 8.000000 655.367270
-3104.738458 8.000000 656.011076
-3106.632003 8.000000 656.654881
-3108.525549 8.000000 657.298687
-3110.419094 8.000000 657.942492
-3112.312640 8.000000 658.586297
-3114.206185 8.000000 659.230103
-3116.099731 8.000000 659.873908
-3117.993276 8.000000 660.517714
-3119.886822 8.000000 661.161519
-3121.780367 8.000000 661.805325
-3123.673912 8.000000 662.449130
-3125.567458 8.000000 663.092936
-3127.461003 8.000000 663.736741
-3129.354549 8.000000 664.380547
-3131.248094 8.000000 665.024352
-3133.141640 8.000000 665.668158
-3135.035185 8.000000 666.311963
-3136.928731 8.000000 666.955769
-3140.000000 8.000000 668.000000
-3142.000000 8.000000 668.000000
-3144.000000 8.000000 668.000000
-3148.000000 8.000000 668.000000
-3149.509652 7.741770 666.713816
-3151.019304 7.483540 665.427633
-3152.528956 7.225310 664.141449
-3154.038608 6.967080 662.855265
-3155.548259 6.708850 661.569082
-3157.057911 6.450620 660.282898
-3158.567563 6.192390 658.996714
-3160.077215 5.934161 657.710531
-3161.586867 5.675931 656.424347
-3163.096519 5.417701 655.138163
-3164.606171 5.159471 653.851979
-3166.115823 4.901241 652.565796
-3167.625475 4.643011 651.279612
-3169.135126 4.384781 649.993428
-3170.644778 4.126551 648.707245
-3172.154430 3.868321 647.421061
-3173.664082 3.610091 646.134877
-3175.173734 3.351861 644.848694
-3176.683386 3.093631 643.562510
-3178.193038 2.835401 642.276326
-3179.702690 2.577171 640.990143
-3181.212342 2.318942 639.703959
-3182.721994 2.060712 638.417775
-3184.231645 1.802482 637.131592
-3185.741297 1.544252 635.845408
-3187.250949 1.286022 634.559224
-3188.760601 1.027792 633.273041
-3190.270253 0.769562 631.986857
-3191.779905 0.511332 630.700673
-3193.289557 0.253102 629.414489
-3194.799209 -0.005128 628.128306
-3196.308861 -0.263358 626.842122
-3197.818512 -0.521588 625.555938
-3199.328164 -0.779818 624.269755
-3200.837816 -1.038048 622.983571
-3202.347468 -1.296277 621.697387
-3203.857120 -1.554507 620.411204
-3205.366772 -1.812737 619.125020
-3206.876424 -2.070967 617.838836
-3208.386076 -2.329197 616.552653
-3209.895728 -2.587427 615.266469
-3211.405379 -2.845657 613.980285
-3212.915031 -3.103887 612.694102
-3214.424683 -3.362117 611.407918
-3215.934335 -3.620347 610.121734
-3217.443987 -3.878577 608.835551
-3218.953639 -4.136807 607.549367
-3220.463291 -4.395037 606.263183
-3221.972943 -4.653267 604.976999
-3223.482595 -4.911496 603.690816
-3224.992246 -5.169726 602.404632
-3226.501898 -5.427956 601.118448
-3228.011550 -5.686186 599.832265
-3229.521202 -5.944416 598.546081
-3231.030854 -6.202646 597.259897
-3232.540506 -6.460876 595.973714
-3234.050158 -6.719106 594.687530
-3235.559810 -6.977336 593.401346
-3237.069462 -7.235566 592.115163
-3238.579114 -7.493796 590.828979
-3240.088765 -7.752026 589.542795
-3241.598417 -8.010256 588.256612
-3243.108069 -8.268486 586.970428
-3244.617721 -8.526715 585.684244
-3246.127373 -8.784945 584.398061
-3247.637025 -9.043175 583.111877
-3249.146677 -9.301405 581.825693
-3250.656329 -9.559635 580.539509
-3252.165981 -9.817865 579.253326
-3253.675632 -10.076095 577.967142
-3255.185284 -10.334325 576.680958
-3256.694936 -10.592555 575.394775
-3258.204588 -10.850785 574.108591
-3259.714240 -11.109015 572.822407
-3261.223892 -11.367245 571.536224
-3262.733544 -11.625475 570.250040
-3264.243196 -11.883705 568.963856
-3265.752848 -12.141934 567.677673
-3267.262499 -12.400164 566.391489
-3268.772151 -12.658394 565.105305
-3270.281803 -12.916624 563.819122
-3271.791455 -13.174854 562.532938
-3273.301107 -13.433084 561.246754
-3274.810759 -13.691314 559.960571
-3276.320411 -13.949544 558.674387
-3277.830063 -14.207774 557.388203
-3279.339715 -14.466004 556.102019
-3280.849366 -14.724234 554.815836
-3282.359018 -14.982464 553.529652
-3283.868670 -15.240694 552.243468
-3285.378322 -15.498924 550.957285
-3286.887974 -15.757153 549.671101
-3288.397626 -16.015383 548.384917
-3289.907278 -16.273613 547.098734
-3291.416930 -16.531843 545.812550
-3292.926582 -16.790073 544.526366
-3294.436234 -17.048303 543.240183
-3295.945885 -17.306533 541.953999
-3297.455537 -17.564763 540.667815
-3298.965189 -17.822993 539.381632
-3300.474841 -18.081223 538.095448
-3301.984493 -18.339453 536.809264
-3303.494145 -18.597683 535.523081
-3305.003797 -18.855913 534.236897
-3306.513449 -19.114143 532.950713
-3308.023101 -19.372372 531.664529
-3309.532752 -19.630602 530.378346
-3311.042404 -19.888832 529.092162
-3312.552056 -20.147062 527.805978
-3314.061708 -20.405292 526.519795
-3315.571360 -20.663522 525.233611
-3317.081012 -20.921752 523.947427
-3318.590664 -21.179982 522.661244
-3320.100316 -21.438212 521.375060
-3321.609968 -21.696442 520.088876
-3323.119619 -21.954672 518.802693
-3324.629271 -22.212902 517.516509
-3326.138923 -22.471132 516.230325
-3327.648575 -22.729362 514.944142
-3329.158227 -22.987591 513.657958
-3330.667879 -23.245821 512.371774
-3332.177531 -23.504051 511.085591
-3333.687183 -23.762281 509.799407
-3335.196835 -24.020511 508.513223
-3336.706486 -24.278741 507.227039
-3338.216138 -24.536971 505.940856
-3339.725790 -24.795201 504.654672
-3341.235442 -25.053431 503.368488
-3342.745094 -25.311661 502.082305
-3344.254746 -25.569891 500.796121
-3345.764398 -25.828121 499.509937
-3347.274050 -26.086351 498.223754
-3348.783702 -26.344581 496.937570
-3350.293354 -26.602810 495.651386
-3351.803005 -26.861040 494.365203
-3353.312657 -27.119270 493.079019
-3354.822309 -27.377500 491.792835
-3356.331961 -27.635730 490.506652
-3357.841613 -27.893960 489.220468
-3359.351265 -28.152190 487.934284
-3360.860917 -28.410420 486.648101
-3362.370569 -28.668650 485.361917
-3363.880221 -28.926880 484.075733
-3365.389872 -29.185110 482.789549
-3366.899524 -29.443340 481.503366
-3368.409176 -29.701570 480.217182
-3369.918828 -29.959800 478.930998
-3371.428480 -30.218029 477.644815
-3372.938132 -30.476259 476.358631
-3374.447784 -30.734489 475.072447
-3375.957436 -30.992719 473.786264
-3377.467088 -31.250949 472.500080
-3378.976739 -31.509179 471.213896
-3380.486391 -31.767409 469.927713
-3381.996043 -32.025639 468.641529
-3383.505695 -32.283869 467.355345
-3385.015347 -32.542099 466.069162
-3386.524999 -32.800329 464.782978
-3388.034651 -33.058559 463.496794
-3389.544303 -33.316789 462.210611
-3391.053955 -33.575019 460.924427
-3392.563606 -33.833248 459.638243
-3394.073258 -34.091478 458.352059
-3395.582910 -34.349708 457.065876
-3397.092562 -34.607938 455.779692
-3398.602214 -34.866168 454.493508
-3400.111866 -35.124398 453.207325
-3401.621518 -35.382628 451.921141
-3403.131170 -35.640858 450.634957
-3404.640822 -35.899088 449.348774
-3406.150474 -36.157318 448.062590
-3407.660125 -36.415548 446.776406
-3409.169777 -36.673778 445.490223
-3410.679429 -36.932008 444.204039
-3412.189081 -37.190238 442.917855
-3413.698733 -37.448467 441.631672
-3415.208385 -37.706697 440.345488
-3416.718037 -37.964927 439.059304
-3418.227689 -38.223157 437.773121
-3419.737341 -38.481387 436.486937
-3421.246992 -38.739617 435.200753
-3422.756644 -38.997847 433.914569
-3424.266296 -39.256077 432.628386
-3425.775948 -39.514307 431.342202
-3427.285600 -39.772537 430.056018
-3428.795252 -40.030767 428.769835
-3430.304904 -40.288997 427.483651
-3431.814556 -40.547227 426.197467
-3433.324208 -40.805457 424.911284
-3434.833859 -41.063686 423.625100
-3436.343511 -41.321916 422.338916
-3437.853163 -41.580146 421.052733
-3439.362815 -41.838376 419.766549
-3440.872467 -42.096606 418.480365
-3442.382119 -42.354836 417.194182
-3443.891771 -42.613066 415.907998
-3445.401423 -42.871296 414.621814
-3446.911075 -43.129526 413.335631
-3448.420726 -43.387756 412.049447
-3449.930378 -43.645986 410.763263
-3451.440030 -43.904216 409.477079
-3452.949682 -44.162446 408.190896
-3454.459334 -44.420676 406.904712
-3455.968986 -44.678905 405.618528
-3457.478638 -44.937135 404.332345
-3458.988290 -45.195365 403.046161
-3460.497942 -45.453595 401.759977
-3462.007593 -45.711825 400.473794
-3463.517245 -45.970055 399.187610
-3465.026897 -46.228285 397.901426
-3466.536549 -46.486515 396.615243
-3468.046201 -46.744745 395.329059
-3469.555853 -47.002975 394.042875
-3471.065505 -47.261205 392.756692
-3472.575157 -47.519435 391.470508
-3474.084809 -47.777665 390.184324
-3475.594461 -48.035895 388.898141
-3477.104112 -48.294124 387.611957
-3478.613764 -48.552354 386.325773
-3480.123416 -48.810584 385.039589
-3481.633068 -49.068814 383.753406
-3483.142720 -49.327044 382.467222
-3484.652372 -49.585274 381.181038
-3486.162024 -49.843504 379.894855
-3487.671676 -50.101734 378.608671
-3489.181328 -50.359964 377.322487
-3490.690979 -50.618194 376.036304
-3492.200631 -50.876424 374.750120
-3493.710283 -51.134654 373.463936
-3495.219935 -51.392884 372.177753
-3496.729587 -51.651114 370.891569
-3498.239239 -51.909343 369.605385
-3499.748891 -52.167573 368.319202
-3501.258543 -52.425803 367.033018
-3502.768195 -52.684033 365.746834
-3504.277846 -52.942263 364.460651
-3505.787498 -53.200493 363.174467
-3507.297150 -53.458723 361.888283
-3508.806802 -53.716953 360.602099
-3510.316454 -53.975183 359.315916
-3511.826106 -54.233413 358.029732
-3513.335758 -54.491643 356.743548
-3514.845410 -54.749873 355.457365
-3516.355062 -55.008103 354.171181
-3517.864713 -55.266333 352.884997
-3519.374365 -55.524563 351.598814
-3520.884017 -55.782792 350.312630
-3522.393669 -56.041022 349.026446
-3523.903321 -56.299252 347.740263
-3525.412973 -56.557482 346.454079
-3526.922625 -56.815712 345.167895
-3528.432277 -57.073942 343.881712
